1.99008 15.2372 -2.46221
0.146207 14.6206 -1.373
3.60326 14.8072 -1.50142
3.4511 16.5834 -3.3934e-14
7.78e-18 15.0105 -1.81314
0.341043 15.0024 -7.89758e-14
4.21335 14.376 -0.820432
3.52409 16.9524 -0.636367
2.54807 15.8203 -1.96493e-14
3.19353 13.5763 -2.08697e-14
2.27039 13.8006 -3.36738e-14
3.04716 14.9531 -2.2983
2.13127 12.7658 -0.934806
0.114874 15.0464 -7.47532e-14
4.20344 16.5589 -3.3934e-14
-4.38792e-16 15.0302 -0.687227
2.4279 13.0061 -2.04821
3.61588 15.5723 -0.571413
2.42262 12.8772 -1.9499
4.03973 14.6024 -1.113
1.4297 15.2363 -2.46846
4.21589 13.621 -0.0160187
2.47432 16.9377 -0.294642
0.175671 14.5537 -1.95817
2.95472 17.0491 -0.619325
2.13791 12.7761 -0.790151
3.93262 15.2198 -0.785816
4.8279 17.2894 -0.232255
0.311858 14.6784 -0.438448
3.73033 16.5111 -3.3934e-14
2.85377 13.3994 -1.3569
3.10339 13.471 -0.916278
4.15048 13.608 -0.0185531
3.59943 14.0424 -0.716015
3.81123 15.1787 -1.01879
3.70024 15.2446 -0.854921
4.73673 13.8556 -2.95396e-14
3.77161 17.0216 -0.624173
0.224141 14.9025 -2.62771
0.0549507 14.6829 -0.244845
2.10892 14.8852 -2.62466
0.486947 14.4863 -2.55433
0.471888 14.6117 -1.34288
1.20276 15.1612 -3.3934e-14
2.62931 13.8667 -3.36738e-14
2.79387 16.2554 -0.759272
1.3285 13.214 -1.42498
1.69491 14.0784 -2.48241
1.49675 12.7726 -1.06386
3.23975 14.5269 -2.14168
1.3285 13.1919 -1.41167
4.8279 14.5692 -0.671335
4.08802 15.1628 -1.10909
4.8279 15.2489 -0.480128
3.46147 17.3139 -0.572639
1.23869 15.5554 -1.04337
2.71766 13.9734 -3.36738e-14
1.0975 15.2229 -2.54975
2.61866 16.7556 0
2.2525 14.1938 -2.50275
3.40419 13.5348 -0.252777
1.75773 12.7194 -1.43316
4.2896 14.003 -3.3934e-14
2.23209 12.7852 -0.805973
1.31425 13.8205 -0.848746
4.36951 13.603 -0.173272
3.41527 14.4256 -3.37862e-14
1.87984 14.3173 -2.52453
1.74173 16.1331 -0.542606
1.28348 13.8796 -1.65209
2.6079 14.0095 -3.36738e-14
3.61905 17.3547 -0.56544
4.77044 16.8794 -0.379427
4.5944 15.6361 -3.3934e-14
3.30124 13.5235 -0.256535
1.53193 15.2544 -2.35358
3.30584 17.499 -0.280791
2.44005 15.1762 -3.3934e-14
1.9876 13.3494 -2.35385
3.1689 14.2158 -1.72849
3.23395 14.1213 -1.06376
4.54237 14.564 -0.926891
0.890918 14.6717 -3.3934e-14
1.17286 14.4015 -3.3934e-14
3.97654 13.5808 -0.345199
1.94081 15.2485 -2.39174
1.33092 14.4108 -2.54101
2.36865 14.462 -3.38845e-14
4.08664 15.1483 -3.3934e-14
2.8768 14.9062 -2.5643
1.90988 15.3177 -1.89851
4.8279 14.8261 -0.0683842
4.06662 15.5027 -3.3934e-14
2.4279 13.1548 -1.22794
1.3285 13.3233 -2.14718
1.55077 12.7971 -0.463706
2.33668 16.8074 -0.144562
2.7602 14.6002 -3.38377e-14
1.62469 15.3831 -1.37353
1.3285 13.4373 -0.289112
4.16487 14.3603 -0.909443
7.78e-18 14.9758 -0.971939
4.46527 16.616 -3.3934e-14
3.4894 15.675 -0.552995
4.42997 15.0197 -3.3934e-14
0.0964437 14.6834 -0.215687
3.19031 14.6663 -2.47946
4.59174 14.7171 -0.946506
4.82245 16.7752 -0.0234172
0.240845 14.8676 -8.17662e-14
0.166879 14.6689 -2.58652
3.84495 16.9372 -3.3934e-14
2.36196 16.1547 -0.777034
2.4984 13.2309 -2.19038
3.24946 16.4938 -1.80157e-14
1.10797 14.2536 -1.27442
2.84963 15.7667 -0.881391
3.24086 14.3052 -1.22171
1.11787 14.1167 -2.26342
1.41903 12.8288 -0.918083
3.77113 16.6876 -0.57922
2.53972 13.4634 -2.37397
2.04271 14.2463 -3.36738e-14
4.26793 16.3026 -3.3934e-14
4.05496 17.0123 -0.525496
2.13555 15.3259 -1.83123
1.9806 16.4043 -0.106697
2.71784 14.1852 -3.38238e-14
7.78e-18 15.0792 -1.88978
2.33275 14.9477 -3.23893e-14
2.29233 16.559 -0.705746
2.89453 13.4677 -0.404093
1.67231 13.9045 -2.45174
0.994451 15.6397 -0.0236074
3.84992 15.1472 -1.1976
1.30896 15.4386 -1.21694
4.15644 13.8858 -3.37544e-14
3.35338 17.032 -1.55604e-14
2.65804 14.4544 -3.3772e-14
1.37593 12.7689 -1.91459
4.73397 16.5579 -0.326056
1.08398 14.642 -2.58178
1.62358 15.687 -0.93064
1.61495 13.4275 -3.3934e-14
2.65197 13.3563 -1.46843
3.89793 17.5075 -0.538488
3.446 14.684 -3.3934e-14
1.07557 14.4227 -2.54311
2.30583 15.0931 -2.66131
1.65828 12.6968 -1.62132
4.10649 15.2175 -3.3934e-14
3.19524 14.7708 -2.43542
3.12996 17.4087 -0.237243
0.0412749 15.2295 -2.5082
3.32406 14.7292 -3.3934e-14
3.50199 17.0869 -3.3934e-14
7.78e-18 15.2368 -1.63716
3.25604 13.6476 -3.14893e-14
0.0516492 14.684 -0.168101
2.73272 15.2958 -2.06801
2.70949 13.7739 -3.36738e-14
7.51961e-18 15.0738 -0.871076
2.69659 15.073 -2.6306
4.29269 14.7074 -1.01788
1.70992 15.2715 -2.24026
2.51654 13.6415 -3.36738e-14
4.01109 17.1796 -3.3934e-14
3.7195 15.5509 -0.692935
0.538165 14.8265 -5.87114e-14
4.35287 15.592 -0.459988
2.31655 13.5288 -3.36738e-14
2.83915 16.0648 0
1.7782 12.7975 -0.249332
4.16676 15.6238 -0.279887
1.3285 13.3064 -1.44167
2.71781 13.4944 -2.12919
1.91568 12.7298 -1.33752
3.50571 13.5418 -0.386038
3.25129 14.4765 -2.09137
1.69426 16.0917 -0.409728
3.05464 15.367 0
2.08161 14.8485 -3.3934e-14
3.38858 13.5293 -0.409882
3.92337 14.017 -0.519673
4.76959 14.6126 -0.911375
2.14542 12.7092 -1.52184
1.21779 15.5414 -1.06109
1.66998 16.0617 -0.656619
2.14507 13.4602 -3.36746e-14
4.63628 14.3085 -0.374689
1.92447 14.32 -2.52501
2.24997 15.3296 -1.7997
3.7865 17.5075 -0.538492
3.62103 14.4134 -1.41231
7.78e-18 15.2066 -1.71144
1.59623 12.764 -0.966498
1.32856 13.0065 -1.23235
2.73492 13.6473 -2.03583
1.5154 15.3517 -1.60117
7.78e-18 14.9539 -1.41996
4.67578 15.6078 -0.370391
1.61982 12.7166 -1.45806
0.916438 15.2522 -2.36812
2.7464 13.4363 -0.640134
2.05582 16.4564 -0.00256496
2.4279 13.1309 -0.12652
1.12145 14.2073 -1.55739
1.19177 15.3549 -1.56931
4.16629 14.3841 -0.773962
2.09362 13.5987 -3.36738e-14
1.28219 13.9682 -0.632134
3.99326 17.5764 -0.526339
4.79737 15.808 -1.05111e-14
1.55069 15.8525 -2.6421e-14
4.05316 17.7619 -0.182405
0.744704 15.3105 -1.95543
1.42704 14.5498 -2.56552
2.89381 15.3421 -1.68973
2.11611 14.2795 -2.51787
1.29951 13.847 -2.4416
2.91247 14.2396 -3.36738e-14
1.90275 16.312 -0.225571
3.08644 15.2756 -1.45017
0.232796 14.8194 -8.17662e-14
1.39303 12.7075 -2.14981
1.81599 15.6373 -3.3934e-14
2.39134 13.2853 -2.34256
2.59962 14.1048 -3.36765e-14
3.41256 15.0492 -1.74462
2.4279 13.1707 -0.470833
0.70352 15.0002 -2.64493
3.53487 17.1955 -0.593507
0.601996 15.5085 -0.119663
1.49151 12.6651 -1.99304
2.50239 15.2831 -2.15987
1.03681 15.337 -1.73506
3.25262 15.951 0
2.25353 12.8493 -2.26568
4.8279 14.6477 -0.664246
4.61737 13.7255 -3.27311e-14
0.982532 15.6314 -0.395988
4.39359 17.3126 -3.3934e-14
4.4719 15.4288 -3.3934e-14
0.128079 14.6434 -1.10384
4.06794 14.0472 -3.3934e-14
1.3285 13.5871 -1.32107
2.4185 16.8204 0
4.8279 17.4483 -0.30606
3.95223 15.727 -3.09334e-14
1.59686 15.1715 -3.3934e-14
3.88414 17.7186 -0.226759
3.52098 15.5838 -0.543886
2.68388 16.5584 0
2.75149 16.3914 0
1.99379 13.7851 -2.43068
3.41947 14.3195 -1.14032
4.30265 15.0949 -3.3934e-14
2.91401 13.4517 -0.817546
2.30595 13.6739 -2.41107
4.8279 14.1302 -0.138114
1.99819 14.7393 -2.59894
3.63718 16.4293 -3.3934e-14
4.8279 14.7337 -0.784294
4.64016 16.8895 -3.3934e-14
3.55089 15.0319 -1.60083
4.52079 16.2251 -3.3934e-14
2.01403 12.7934 -0.407512
1.3948 15.8503 -0.570296
2.20766 15.4259 -1.24732
2.32041 15.8305 -3.3934e-14
4.41014 14.3657 -0.915279
4.70441 14.143 -0.340235
0.748514 15.518 -0.999013
1.33436 12.8844 -1.93491
2.40882 13.4161 -1.35696e-14
1.31264 13.851 -0.357804
1.24245 14.0787 -0.514762
3.98425 14.9465 -3.3934e-14
2.85315 16.5964 -0.699138
3.36817 16.0802 -7.85964e-15
1.75127 13.2208 -3.3934e-14
7.78e-18 15.2307 -2.03389
2.28973 14.15 -3.36738e-14
2.4279 13.2408 -0.0871974
2.55253 13.3962 -0.803424
4.20978 17.7881 -0.48404
3.09858 15.0763 -1.59947
1.3285 13.0998 -2.17449
4.70464 17.5187 -0.496431
4.68343 14.7692 -3.3934e-14
1.48117 15.2644 -2.28818
2.07366 16.3169 -0.748431
1.3285 13.3734 -0.677342
4.75398 14.9703 -0.974825
2.23031 12.8096 -2.25868
0.527359 15.2925 -2.09176
3.08969 14.6435 -3.3934e-14
4.39082 17.5392 -0.532385
2.91835 13.6984 -1.46946
3.03329 17.3511 -0.331218
3.24489 15.0138 -1.95399
4.8279 13.8862 -0.120104
3.17206 17.3793 -0.557212
3.3034 14.0877 -0.981628
3.84714 17.7088 -0.166355
2.65173 14.3129 -3.37714e-14
1.636 13.2044 -2.3283
1.71989 13.9493 -3.36738e-14
2.96141 13.5897 -3.09678e-14
3.85438 16.4975 -0.508813
0.272329 14.5991 -1.58504
2.39834 16.7991 -0.657104
4.56029 13.9054 -3.3934e-14
1.53474 15.8539 -2.17139e-14
4.1637 17.7819 -0.390043
7.78e-18 15.0113 -2.25385
3.09673 15.0833 -1.55952
1.94902 15.2552 -2.34816
4.8279 14.9926 -0.477649
2.79167 16.3719 0
0.364264 14.6352 -1.18521
2.01063 15.256 -2.34309
3.06484 15.5745 -0.867118
2.72102 14.0991 -2.21658
4.32041 15.2232 -0.76643
0.154272 14.5984 -1.59171
4.13985 13.9039 -0.410656
1.57603 15.2087 -2.63287
2.93046 13.6323 -1.43423
1.3285 13.1067 -1.21059
1.3285 13.3722 -0.548071
1.56036 12.7908 -0.593248
0.839212 15.364 -1.48191
1.3285 13.3469 -0.0907389
3.43586 16.5564 -0.705896
3.04361 16.8427 0
4.47493 14.1282 -3.3934e-14
4.09507 16.4414 -3.3934e-14
2.18213 15.42 -1.26072
4.45791 17.2832 -3.3934e-14
1.66749 13.1332 -3.3934e-14
2.43695 16.8979 -0.510301
1.26732 14.6886 -3.3934e-14
4.26918 16.4318 -3.3934e-14
2.44807 15.3321 -3.3934e-14
3.70559 15.2473 -3.3934e-14
1.30613 13.737 -2.04503
3.39468 16.7497 -0.672123
3.04923 17.0144 0
4.15272 14.2902 -3.3934e-14
4.47156 16.1528 -0.278146
0.0739462 14.8627 -2.62069
3.5064 17.5902 -0.0805175
0.210834 14.9312 -2.63278
4.55254 17.1385 -0.441426
0.591197 14.8007 -5.38646e-14
3.54823 15.233 -3.3934e-14
0.358614 14.6172 -1.39171
3.42929 15.1693 -3.3934e-14
2.49832 15.8433 -2.86544e-14
1.38675 14.3212 -3.3934e-14
1.37406 13.4661 -1.35996e-05
2.30481 14.8775 -3.22113e-14
1.29872 13.7832 -1.96276
2.54413 17.0015 -0.110916
0.388526 14.6669 -0.659525
1.58038 15.473 -1.15728
1.14864 14.0671 -2.30719
1.6765 14.1081 -3.36738e-14
2.4279 13.1317 -1.599
4.67555 13.8024 -0.282088
1.40487 15.6117 -3.3934e-14
4.31206 17.8102 -0.209989
3.46303 14.6339 -3.3934e-14
1.3285 13.3008 -1.31462
1.14284 15.2759 -2.2099
2.12991e-16 14.7829 -2.50556
0.412984 14.7072 -0.00572404
1.36459 12.8041 -1.80011
3.2023 16.9642 -0.634297
0.416592 15.4697 -0.135347
4.50261 13.6199 -0.0251073
3.87574 16.4116 -0.484904
1.32931 12.8762 -2.24507
2.6629 17.0946 -0.41311
1.47617 15.8799 -0.816304
1.874 14.6979 -3.3934e-14
1.01678 15.6364 -0.690459
2.70417 16.9068 -0.644414
4.08788 15.2585 -0.675457
2.28855 16.1116 -3.29995e-14
0.828465 14.5239 -0.867276
1.3285 13.2335 -0.735892
7.78e-18 14.6064 -2.05626
3.52387 15.6613 -0.529193
2.02141 15.2299 -2.50743
2.4279 13.1129 -0.439475
1.86057 14.1191 -3.36738e-14
4.59439 16.709 -0.361675
1.93131 15.3475 -1.64033
2.97835 16.0199 -0.800803
4.35717 14.0555 -3.3934e-14
3.69962 14.8009 -1.39971
1.78941 15.5796 -3.3934e-14
3.05969e-16 14.8613 -2.52826
2.25129 15.0857 -3.3934e-14
4.28625 17.8075 -0.0526902
3.70589 17.6641 -0.166101
4.45212 16.2738 -3.3934e-14
1.94517 16.3529 -0.57956
2.34541 12.8551 -0.67431
3.47454 15.3352 -1.03597
2.85492 17.2341 -0.4762
2.11103 12.7506 -1.12225
3.80516 14.4201 -1.23955
2.40884 12.9527 -0.58418
1.463 15.8767 -0.00738908
0.795614 14.5646 -0.332056
0.190404 14.6643 -0.776893
2.43298 15.541 -1.06126
2.83039 14.1486 -3.36738e-14
3.7132 13.8676 -0.608866
1.5334 12.7291 -2.2445
4.60705 16.935 -3.3934e-14
3.35598 16.0086 -0.701334
1.02357 15.4274 -1.23981
4.70276 17.8441 -0.342884
-4.41734e-15 15.1048 -0.181122
3.71822 14.3048 -1.2833
2.22365 13.8128 -2.43558
2.79717 13.898 -1.81724
4.07135 14.3951 -0.71157
3.19926 15.1383 -1.32228
2.28919 16.7495 -0.562302
3.26697 14.3192 -1.07471
1.09816 15.6813 -0.520798
2.73649 14.2093 -3.37358e-14
2.93917 15.9345 0
0.312428 15.082 -6.71724e-14
3.08611 16.7938 0
3.35067 14.0579 -3.36738e-14
2.61174 13.2761 -2.02827
3.24352 17.1609 -0.5996
3.96993 13.5818 -0.394017
2.50947 13.3603 -1.18699
1.41795 14.9405 -2.63441
2.07248 16.5049 -0.500222
4.15806 14.4169 -1.02051
2.55379 16.6205 0
-4.57678e-15 15.2979 -0.163751
0.0791523 15.4366 -0.072218
2.27578 12.8064 -0.684722
4.38854 16.3686 -0.329408
2.6925 16.6755 0
1.62337 12.9027 -2.27509
2.05221 12.6636 -1.86299
3.38289 15.0684 -3.3934e-14
2.34783 12.8071 -1.26662
4.38425 15.233 -0.710865
-4.37548e-15 15.1351 -0.347531
1.42609 12.7925 -2.25566
4.31283 16.6732 -3.3934e-14
2.07806 13.9594 -3.36738e-14
1.99455 13.8121 -2.43544
1.22377 14.0834 -1.11972
4.53115 17.5908 -0.519727
2.99172 15.2022 -1.58756
1.82019 14.1684 -3.36738e-14
1.3285 13.2773 -0.570317
3.57912 13.6011 -0.653055
3.1626 14.1101 -1.14855
2.68028 15.6973 0
1.92112 15.2686 -2.25961
3.14159 14.6481 -3.3934e-14
0.451722 15.1817 -2.67044
3.8987 14.33 -1.12963
2.38539 12.801 -1.74138
3.25265 15.7755 -0.737654
4.36285 15.6076 -3.3934e-14
4.0216 14.406 -0.649762
3.24622 15.5706 -0.714052
3.19471 14.5208 -2.39575
2.60716 15.2872 -2.13064
2.29854 14.3649 -3.38659e-14
3.75974 16.4124 -3.3934e-14
3.91305 14.7616 -1.21937
2.34782 12.7163 -1.98989
4.11754 15.0636 -1.1539
4.8279 16.3882 -0.188713
2.78791 16.0443 0
1.7388 15.7096 -3.3934e-14
2.288 12.8673 -0.000610585
3.25226 16.3543 -0.741836
2.80186 15.9141 0
2.64764 15.3281 -1.81252
3.14916 14.5909 -3.3934e-14
0.619788 14.6536 -2.58382
1.27798 15.7221 -1.95972e-14
0.916298 15.1779 -2.67628
1.88975 12.7176 -2.24246
0.387566 14.6682 -0.632702
4.8279 14.2757 -0.191073
3.97599 16.3688 -0.43936
3.69038 17.0405 -3.3934e-14
4.68178 13.6104 -0.118006
0.614714 14.5746 -2.56989
0.984837 15.2854 -2.14298
0.995493 14.39 -1.04931
1.05279 14.3727 -0.0769506
2.42637 16.507 0
0.673874 15.0018 -3.3934e-14
2.01082 16.4371 -0.320887
4.76034 15.5715 -2.14213e-14
4.20345 14.3996 -0.686682
3.59556 15.982 -1.63277e-14
3.01108 15.1502 -1.54549
2.84016 16.2683 0
2.46036 14.3882 -3.38057e-14
2.4279 13.1601 -1.24354
3.7302 17.4827 -0.542855
4.06412 17.706 -3.3934e-14
3.1851 14.9436 -2.32269
7.78e-18 14.8339 -0.823025
0.718597 15.1483 -3.3934e-14
3.94071 14.4091 -0.626207
2.6472 16.3899 -0.735554
1.23974 15.6276 -0.974682
7.78e-18 14.9357 -0.73008
1.41877 12.832 -0.89109
1.29134 13.8343 -1.80575
2.27867 16.0796 -3.16818e-14
0.102868 15.324 -1.84698
1.32231 13.7728 -0.526986
4.13462 14.5092 -1.04798
4.01757 17.4804 -1.40345e-15
4.15277 14.5124 -3.3934e-14
4.7323 17.4814 -0.488947
0.728469 15.3617 -1.50188
1.68298 14.2234 -3.36738e-14
1.34056 12.8371 -1.98778
0.637115 14.5745 -1.32767
2.21352 16.665 -0.616702
0.161766 14.5743 -1.79915
1.28522 13.9735 -0.124465
4.71971 15.0523 -3.17259e-14
2.66631 13.3418 -1.61397
3.92733 17.0558 -0.578373
0.657703 14.4481 -2.28657
1.82177 14.2009 -2.50401
2.4279 13.2818 -0.123823
7.78e-18 14.8274 -1.02529
1.3285 13.116 -1.451
2.19692 16.6544 -0.331728
0.069972 15.3071 -1.98245
2.97034 13.4836 -0.153953
2.50334 15.3485 -1.63114
2.42719 13.0318 -1.23446
1.83669 12.7474 -1.15904
2.68785 13.3046 -1.92008
2.33249 15.4062 -1.29224
2.78968 15.8799 0
1.30069 14.3776 -3.3934e-14
2.23074 16.6462 0
2.04263 16.4749 -0.29023
1.32756 13.6134 -1.46328
3.48817 15.176 -3.3934e-14
4.32127 16.3156 -3.3934e-14
0.716702 15.5284 -0.6171
1.5868 12.795 -0.354784
3.03559 15.2484 0
1.9306 16.1983 -0.769343
3.12497 15.3469 0
4.69786 17.6266 -3.37511e-14
3.46213 14.3213 -1.13019
4.6968 15.2535 -0.594392
2.56824 14.0369 -3.36738e-14
1.00404 15.6459 -0.0561267
2.4855 13.3209 -1.53293
1.28773 15.5502 -1.05023
3.88101 17.1258 -3.3934e-14
4.30459 15.8805 -0.259623
1.35393 13.7871 -2.43105
3.19083 14.5128 -2.44548
1.29934 13.8629 -1.24058
3.15198 16.6999 -0.680892
4.63556 14.1858 -0.352617
3.77328 14.1204 -3.3934e-14
2.18683 12.8804 -3.36841e-14
2.4279 13.095 -0.0923939
4.06253 14.1014 -0.474091
2.88545 16.1501 0
1.3285 13.6537 -0.338391
2.94099 16.9128 0
0.22178 14.7256 -0.00136999
4.8279 14.0448 -0.196863
3.77594 17.4386 -1.69522e-14
-2.58944e-16 14.7738 -0.665639
1.31618 15.214 -2.60178
4.42316 15.413 -3.3934e-14
1.44513 12.6601 -2.17331
7.78e-18 15.214 -2.3843
2.22809 16.1778 -0.772958
4.18176 15.658 -0.257784
1.78199 14.9055 -2.62825
4.8279 14.8374 -0.679347
3.17542 17.0134 -0.625624
4.23147 16.0136 -0.299632
3.56851 15.15 -1.18179
1.61119 12.7788 -0.735217
1.52826 15.9527 -0.36869
1.31604 13.7776 -1.2538
0.97549 15.6228 -0.581199
4.08534 17.2562 -0.559303
3.76822 15.135 -1.26645
3.58482 15.3619 -0.954195
2.70389 13.4621 -5.64196e-15
1.48447 12.8684 -2.26905
0.45887 15.435 -1.14569
3.02408 14.4558 -2.54894
2.4279 13.1079 -0.350381
4.79613 15.5778 -0.503994
1.55722 15.9762 -0.330441
1.43181 12.8525 -0.115866
3.69037 16.467 -0.579051
4.8279 16.9046 -0.0459986
2.74267 14.1103 -2.07445
2.82333 14.9402 -2.37154
0.412222 15.4684 -0.188188
3.32049 14.2079 -1.84624
0.555334 15.3046 -2.00165
4.50019 14.372 -0.89041
4.77721 15.9028 -1.74531e-14
3.65719 15.2649 -0.88654
2.52842 15.3444 -1.66888
2.88167 14.1122 -2.3163
2.68592 13.2968 -1.97135
4.69155 13.6584 -0.251699
4.08936 17.2311 -0.553609
0.130956 15.2972 -2.05772
3.72642 17.4951 -1.9747e-15
2.40888 12.9264 -0.953354
2.03733 12.8643 -3.39337e-14
1.51304 14.3269 -2.52621
1.49031 15.253 -2.36308
3.44641 17.0957 -0.61111
1.31116 13.8213 -1.12905
0.000232431 15.3568 -1.37207
4.26782 16.4589 -0.369816
4.19771 15.2355 -3.3934e-14
6.37817e-16 14.6371 -2.49287
2.85406 16.4007 0
1.87195 13.207 -3.3934e-14
4.40363 17.8212 -0.308871
2.98896 15.514 -0.952819
2.55587 14.5654 -3.3934e-14
1.45905 14.8927 -3.3934e-14
0.819501 15.4554 -1.18622
0.922715 15.6089 -0.304993
3.32041 16.1963 -1.74185e-14
4.62572 14.0123 -0.322951
4.76663 17.3763 -0.469149
3.53561 15.1419 -1.22712
7.78e-18 14.7465 -1.8198
0.319815 15.2964 -2.0632
2.80478 14.9938 -3.26855e-14
2.50096 14.6134 -2.57673
4.26921 13.5992 -0.176674
2.90378 16.7577 -0.670707
1.59838 12.7928 -0.426451
1.81737 15.9948 0
1.30572 14.9936 -3.3934e-14
0.237538 14.6228 -1.34957
4.28236 14.3911 -0.734498
1.67521 12.7675 -2.25125
4.8279 14.7551 -0.381603
2.87659 14.962 -2.24782
2.78491 13.4234 -1.77431
1.50436 14.0273 -2.4734
2.49361 14.3007 -3.37795e-14
4.8279 13.7664 -0.167006
2.88069 14.1559 -2.06806
7.78e-18 14.9295 -1.7199
4.60513 17.7609 -3.3934e-14
1.85912 16.2636 -0.137458
3.96062 16.0209 -0.383074
1.00277 14.4208 -0.160859
4.82784 15.4992 -0.531797
4.56325 13.8694 -0.305053
3.69629 16.2682 -0.541084
2.1393 13.0638 -2.30351
1.81962 14.2436 -2.51153
2.77703 15.3462 -1.65343
0.30218 14.6858 -0.0542769
1.01006e-16 15.145 -2.60291
1.25849 14.0152 -0.988887
0.202129 15.3573 -1.54585
4.66749 17.4041 -3.3934e-14
1.3285 13.4904 -0.778679
0.897377 15.5097 -2.71227e-14
2.72181 15.7383 0
2.87084 16.2863 0
4.2913 14.6469 -1.00772
3.10478 15.0656 -1.66038
3.64708 16.7771 -3.3934e-14
1.27129 15.564 -3.3934e-14
3.36769 15.5545 -0.672893
2.6997 15.2786 -2.1914
1.71783 15.5197 -3.3934e-14
3.46614 17.5323 -0.534121
0.42427 15.229 -2.51299
2.77444 13.9158 -3.36738e-14
4.17173 17.7872 -0.112485
3.34657 14.0149 -3.36738e-14
2.58839 15.2698 -2.25155
0.277199 14.8332 -8.17662e-14
0.404106 15.4604 -0.487297
4.74694 14.6269 -2.65295e-14
2.74408 17.1103 -0.00592369
7.78e-18 15.0196 -1.09678
2.93253 15.9947 0
4.76756 16.1674 -2.07761e-14
3.53967 16.1992 -0.614362
0.507624 14.6481 -0.765827
2.08366 15.0968 -3.3934e-14
0.675068 14.5831 -1.06137
1.7528 13.0052 -2.29317
2.69531 16.0395 0
2.50089 16.4467 -0.725541
2.23033e-18 15.1886 -0.759349
1.27669 13.8043 -2.32723
4.35541 13.7971 -0.329512
3.41837 14.7067 -1.73967
1.8032 13.3906 -3.3934e-14
1.35152 12.9639 -2.27201
4.4545 16.37 -3.3934e-14
1.64701 15.6287 -0.973049
2.32646 16.524 -0.711911
0.632986 15.384 -1.36455
1.49395 15.9281 -0.297936
4.8279 14.2883 -0.177668
2.54437 16.9989 -0.321798
4.33787 15.6268 -0.269135
1.3285 13.5265 -0.728319
2.36077 12.8096 -1.39781
1.79469 14.705 -2.59288
3.7127 15.1013 -3.3934e-14
1.68973 12.8095 -2.25866
1.15587 14.8775 -2.62329
3.22878 13.4922 -0.825687
0.553799 15.4941 -0.310803
3.17743 14.9502 -2.31386
0.269048 15.3155 -1.91587
2.51395 13.3687 -2.35725
2.49863 13.4093 -0.216901
4.4048 16.7564 -0.395303
4.45877 14.4354 -0.483394
2.2827 12.7603 -1.3055
3.21933 16.1322 -1.5802e-16
4.17835 15.5201 -3.3934e-14
3.38314 15.6634 0
4.11834 17.213 -0.541541
3.12535 14.1436 -1.20374
1.31885 13.8148 -0.138976
2.39944 12.8959 -1.08229
0.739365 14.5865 -0.498904
1.3285 13.3723 -1.83341
2.93617 16.3779 -0.737667
3.66805 15.3096 -2.42869e-14
2.22625 12.7495 -1.2383
3.89134 17.62 -1.00069e-14
4.06051 16.9094 -3.3934e-14
0.866956 14.3344 -2.35257
4.39545 15.0972 -1.05454
4.68106 15.5769 -0.543826
3.66215 15.2257 -0.885127
-4.65665e-15 14.7336 -0.29494
2.35634 15.9955 -2.89555e-14
3.66658 14.1118 -3.3934e-14
2.47363 16.3748 -0.738214
0.759786 15.2587 -2.32567
4.52467 16.9491 -3.3934e-14
3.89896 15.4385 -0.77768
2.17231 15.5584 -3.3934e-14
0.753732 14.4142 -2.24882
7.78e-18 15.154 -1.19219
3.52575 14.5848 -1.55761
2.71907 14.9048 -3.1062e-14
2.76208 15.6944 -0.9234
0.369939 14.4658 -2.5444
3.99917 15.1694 -1.07118
2.65 17.0796 -0.570608
3.11254 14.2979 -1.25024
1.84167 12.6925 -1.65501
4.66236 17.0631 -0.418645
1.3584 14.5622 -2.56771
0.0934277 14.6213 -1.36549
1.57432 13.8202 -3.36738e-14
1.32736 13.6205 -1.44955
4.66119 15.2192 -0.789084
1.67044 15.2593 -2.32153
0.343845 14.7931 -2.60842
3.44598 14.8991 -3.3934e-14
0.749308 15.2791 -2.18811
0.350308 15.4452 -0.675021
3.81653 15.8722 -0.415121
3.54212 15.8347 -0.548796
2.9989 14.9175 -2.50027
2.32542 14.3021 -3.37675e-14
4.82759 16.0476 -0.18411
3.19174 14.3772 -2.40702
3.30849 16.5017 -0.715849
4.47962 16.9955 -3.3934e-14
2.39388 13.7218 -3.36738e-14
2.40606 16.8725 -0.36868
4.775 14.4478 -0.882111
4.53195 15.6071 -3.3934e-14
0.0890338 15.4261 -0.573073
3.11129 14.1934 -1.8555
1.25835 14.0167 -0.966805
1.33226 12.9853 -1.13377
1.40342 13.5949 -3.3781e-14
4.8279 15.0401 -0.402256
2.0643 16.0068 -2.5323e-14
2.51617 15.606 -0.994085
0.964771 14.2653 -2.33369
3.72457 16.3544 -0.542413
0.194651 14.6814 -0.321375
4.8279 17.1808 -0.0493898
1.18018 14.0014 -2.40599
1.0693 14.2913 -1.34968
-4.36909e-15 14.9496 -0.294226
3.78917 14.5999 -3.3934e-14
3.7855 16.1255 -3.3934e-14
2.15654 13.3525 -3.37538e-14
2.94875 13.4206 -1.29771
3.59378 14.9562 -1.53907
3.83184 16.5357 -0.525136
4.8279 17.6614 -0.189984
0.213412 14.6191 -1.38823
7.78e-18 14.9291 -0.90338
0.878951 15.5328 -2.07473e-14
2.66121 17.0979 -0.121871
3.17372 14.5514 -2.5466
3.50545 14.7486 -1.6137
2.4279 13.1235 -0.10536
4.8279 14.9774 -0.726619
1.62787 16.0322 -0.435492
2.36843 12.9731 -0.00125811
3.74695 17.3801 -0.560958
1.84105 13.3298 -3.3934e-14
1.50248 12.7596 -1.21213
7.78e-18 14.7597 -2.46854
4.10911 14.4096 -0.629274
1.07986 14.3327 -0.550384
2.01423 15.6587 -3.3934e-14
4.66686 14.8037 -3.3934e-14
2.4127 16.8731 -0.574716
2.78329 14.1436 -2.13659
3.02513 13.4573 -0.965217
3.94887 15.5116 -3.3934e-14
2.09137 14.6869 -3.3934e-14
1.57865 12.8023 -0.134502
1.3285 13.2349 -0.168623
2.71813 14.173 -3.38555e-14
4.31226 16.3383 -3.3934e-14
3.30391 17.0198 -9.15869e-16
3.38024 15.4886 -1.04567
2.53144 14.3493 -3.38711e-14
4.39247 15.3592 -0.592641
4.14287 15.9843 -0.317862
4.8279 15.1791 -0.0851017
4.80967 14.3835 -0.375923
2.70469 13.4609 -2.3002
1.3285 13.3039 -0.586449
3.33249 13.5289 -0.118696
2.67539 13.3552 -1.51162
3.14003 16.4791 0
3.84688 17.7081 -0.220476
0.391727 15.4469 -0.77152
1.84046 12.7749 -0.799761
0.457974 14.5338 -2.0324
3.97124 15.5179 -0.754506
3.98409 16.8025 -3.3934e-14
3.83735 16.1677 -3.3934e-14
4.8279 14.9805 -0.556517
1.34233 13.2147 -2.3212
3.66382 17.4125 -0.555245
1.79096 12.7722 -0.84212
3.08863 14.2242 -1.68115
4.46443 15.7505 -0.208234
1.97923 15.2833 -2.15785
0.344009 14.5191 -2.19286
3.05374 16.1615 -0.775836
2.9566 15.2545 -1.66008
2.40605 12.934 -0.793645
3.8894 15.2119 -0.830475
4.1192 17.5558 -3.25838e-14
0.150328 14.6841 -0.160135
2.56148 13.87 -3.36738e-14
0.83576 15.3052 -1.99699
2.40437 16.5124 -0.713951
1.35952 12.8965 -1.04542
1.89486 15.4306 -3.3934e-14
1.32719 15.2587 -2.32589
1.24964 15.4246 -3.3934e-14
3.16637 15.0707 -1.63143
4.8279 14.6618 -0.555356
3.31041 14.9214 -3.3934e-14
4.33593 17.0432 -0.458006
2.90004 15.0811 -1.21502e-14
3.83472 14.6155 -1.25035
4.03995 14.831 -3.3934e-14
7.78e-18 15.2061 -1.3706
0.418512 15.4698 -0.158461
2.53893 14.0954 -2.48539
3.51103 13.8762 -0.753969
0.00628075 14.6455 -1.54577
0.677115 14.7198 -2.5955
4.09561 15.0585 -3.3934e-14
2.0933 15.3346 -1.75657
4.8279 15.5238 -0.226544
0.497836 15.2666 -2.27305
1.33483 14.3928 -3.3934e-14
1.96574 16.3869 -0.111478
4.3122 17.3785 -0.52224
1.52484 12.8104 -0.088492
1.3285 13.5037 -1.38629
1.18855 14.3635 -2.53267
4.8279 15.0967 -0.521171
4.62121 17.8434 -0.110338
3.52365 13.5403 -0.488622
2.34557 12.8324 -0.975153
0.838491 15.2061 -3.3934e-14
3.82025 15.2643 -0.787773
4.48406 14.5242 -0.931648
2.42523 12.9771 -1.36487
2.69067 13.4347 -0.470686
2.75788 16.2406 0
0.0310003 14.5317 -2.19917
4.78697 14.4192 -0.596074
2.77678 13.8239 -1.87542
3.57833 15.1578 -3.3934e-14
4.12368 15.6952 -3.3934e-14
0.61699 15.2277 -2.52098
1.3285 13.4302 -0.168755
0.602022 15.3744 -1.41231
4.0892 16.4294 -3.3934e-14
4.8279 14.8556 -0.200105
2.17665 16.0193 -3.3934e-14
1.3285 13.4862 -1.77791
0.56757 14.9284 -2.63227
3.4333 13.9518 -0.832826
1.40514 14.7516 -2.60111
2.35838 12.8101 -1.36554
4.29776 16.1089 -3.3934e-14
1.87484 13.6383 -2.40481
4.8279 15.1952 -0.252614
3.80524 16.9571 -3.3934e-14
3.88516 14.3982 -0.694325
3.41723 14.3212 -1.6737
2.44993 13.6874 -2.41346
1.42176 14.1302 -3.37603e-14
0.272528 14.6774 -0.472438
1.3285 13.1999 -0.41596
1.3285 13.4493 -1.41209
1.68019 12.7966 -0.295506
1.44972 12.7743 -1.3066
3.90043 14.3056 -0.581606
1.79968 16.1988 -0.222805
2.57433 13.4139 -0.519325
3.70766 14.798 -1.39138
4.01436 16.0335 -0.366338
1.63297 12.724 -1.39191
0.467284 15.0055 -2.64588
1.87245 16.2789 -0.105242
3.27441 14.8638 -2.08318
3.31266 14.5598 -1.92774
2.29989 12.7449 -1.53113
1.75096 15.9198 -0.822697
3.57082 13.5443 -0.502567
3.49461 14.2156 -3.36977e-14
0.724622 14.5486 -1.24801
3.34203 17.5178 -0.159926
2.5513 13.4137 -0.411224
4.33232 15.2483 -0.63118
4.04549 16.6767 -0.469683
0.589422 15.4509 -1.17891
2.4721 15.374 -3.3934e-14
2.47612 15.5913 -1.00701
1.3285 13.0558 -1.96017
3.11548 14.1835 -1.91206
1.15726 15.3136 -1.9319
2.10191 12.7348 -1.2896
2.86314 16.604 0
0.0799176 15.3566 -1.42202e-06
2.51802 13.9999 -2.46855
4.71957 16.7141 -0.354163
1.3285 13.3072 -1.38446
1.80067 14.0718 -3.36738e-14
4.16718 15.3925 -3.3934e-14
4.21044 17.6013 -0.521952
3.86214 15.6805 -0.36179
0.112947 14.6306 -1.2623
1.43931 12.7076 -1.90267
4.59053 14.6218 -3.3934e-14
0.947445 14.383 -1.57856
4.51254 14.4335 -0.909666
1.80336 14.844 -2.6174
4.77921 15.2194 -1.67629e-14
1.60265 15.8236 -3.3934e-14
4.12151 16.9921 -3.3934e-14
2.32875 15.2377 -2.45913
1.32621 13.7295 -0.237285
3.17664 13.9007 -3.36738e-14
4.05203 15.9085 -0.332213
0.772787 14.6385 -0.00749595
2.25252 15.3583 -1.53621
0.948214 15.331 -1.788
3.82711 16.4896 -3.3934e-14
3.73745 17.6743 -0.185171
0.106878 15.0534 -2.65431
3.35966 16.2672 -2.40756e-14
0.594633 14.8081 -5.19538e-14
3.95352 15.9572 -0.374571
0.855185 14.5168 -0.693311
3.6389 15.1011 -3.3934e-14
2.8895 15.3766 -1.40333
2.60954 14.3511 -3.38391e-14
0.892151 14.4259 -1.55546
3.48734 16.4392 -3.3934e-14
2.87929 16.6482 -0.690013
3.27535 13.6362 -0.931788
4.05622 15.9965 -0.346169
1.08641 14.2606 -1.46826
3.26741 15.7921 -0.729051
2.80047 13.7008 -1.77141
2.59481 16.2646 -2.65881e-16
4.73379 17.573 -3.06358e-14
3.10681 14.8008 -2.60979
0.874305 15.3625 -1.49366
3.02438 14.7985 -2.60936
2.7455 15.34 -1.70956
4.42121 15.3681 -0.588309
1.68469 15.322 -1.86397
2.35459 15.3728 -3.3934e-14
4.82773 14.1721 -0.0466741
3.44502 17.1224 -2.28389e-14
4.54746 14.5658 -0.926378
3.33888 16.8422 -1.12469e-14
0.508662 15.2906 -3.3934e-14
3.33693 14.7432 -3.3934e-14
4.39181 14.7588 -0.995768
4.33305 16.536 -0.369345
0.082229 15.4358 -0.195954
3.10762 15.471 -1.13614
3.51643 16.2103 -3.3934e-14
1.91247 12.791 -0.477422
2.38747 12.7546 -2.09201
1.43401 15.8876 -0.0119723
3.65248 16.4173 -3.3934e-14
1.01427 14.6634 -2.58555
1.65456 15.224 -2.54287
0.992252 14.4005 -2.53919
1.29232 13.9062 -1.06808
3.86275 17.3812 -2.72255e-14
1.31912 13.8104 -0.294959
3.29014 13.8428 -0.952495
3.00064 14.2067 -1.4046
0.368312 14.4957 -2.33791
3.10163 17.3907 -0.360565
1.57591 12.6572 -1.9155
2.0949 12.6792 -1.75355
1.84197 16.1686 -0.774573
3.94874 15.9289 -0.371364
4.6127 14.5023 -0.905332
0.646982 14.613 -0.740624
0.956424 14.2743 -2.32382
4.23293 14.008 -0.398892
2.247 16.0816 -3.3934e-14
1.64405 13.19 -3.3934e-14
3.19399 15.7448 -0.7799
2.97594 13.4536 -0.922965
3.05194 15.3522 -1.51044
0.816662 15.5725 -0.0676218
4.56123 13.7519 -3.30234e-14
2.66816 16.7578 -0.670691
2.09355 12.6255 -2.10541
4.8279 14.7859 -0.624777
2.94232 15.0277 -1.87506
3.00629 13.6075 -1.28953
1.72785 13.1736 -3.3934e-14
1.08614 15.6443 -0.94193
1.88316 13.8893 -2.44906
4.09783 16.3606 -0.39737
1.11604 14.1074 -2.33626
3.58077 15.1789 -1.01758
2.31234 13.3759 -2.35853
1.936 15.9041 -2.18183e-15
4.67323 14.4155 -0.595886
1.70609 15.295 -2.07352
-2.58268e-15 15.0271 -0.623158
3.98449 16.7011 -0.494548
4.74973 15.2918 -2.51952e-14
0.0221773 15.4099 -0.781219
2.4279 13.1835 -0.289167
3.65457 14.9873 -1.4777
1.59682 12.7861 -0.59344
2.39233 13.9243 -2.45523
4.02529 17.4802 -2.23995e-15
4.4761 15.751 -3.3934e-14
4.82108 15.2252 -0.742519
2.43973 13.7231 -3.36738e-14
2.4279 13.0694 -1.90169
4.6655 13.7293 -0.2701
4.80831 15.8239 -0.18129
4.12907 17.7287 -0.495829
0.205102 15.4135 -0.969327
3.67689 16.7434 -3.3934e-14
0.829508 14.4259 -1.88811
3.01629 13.9414 -1.33162
2.73339 13.4708 -2.01423
1.3285 13.2605 -1.2276
2.92229 16.003 0
1.3253 15.6057 -3.3934e-14
2.24471 12.972 -3.36738e-14
1.3285 13.1963 -0.242669
2.30268 13.9262 -3.36738e-14
0.697034 15.4996 -1.04373
3.03648 15.4785 -1.10322
1.4563 14.1835 -3.37067e-14
2.20496 13.98 -3.36738e-14
3.25648 14.5839 -2.09149
4.28318 16.2541 -0.330227
3.15496 15.0992 -1.46928
1.33204 12.9892 -1.16869
2.90006 16.0213 0
7.78e-18 15.0898 -0.928473
0.961789 14.8546 -2.61926
4.043 15.3416 -0.696204
3.82528 15.1434 -1.21872
3.75713 13.5621 -0.522341
2.87587 14.575 -3.37801e-14
0.321242 15.2621 -3.54059e-14
3.33251 14.2333 -1.62909
2.06098 15.7726 -3.3934e-14
1.3285 13.3692 -1.58132
2.85938 14.1979 -1.75063
3.18893 15.4846 -1.06924
4.07879 14.089 -0.465533
3.64091 16.5874 -3.3934e-14
-2.93265e-15 14.8314 -0.660612
3.17304 16.8699 0
4.1812 17.3823 -3.3934e-14
3.90158 17.1076 -0.595675
0.010792 14.5991 -1.70181
2.41814 13.0016 -0.0699513
3.3464 14.9576 -1.92065
3.84447 16.7478 -3.3934e-14
3.22562 15.4571 -1.17794
3.6378 14.5215 -3.3934e-14
2.4279 13.1915 -0.408211
3.60931 14.3961 -1.42292
2.46665 16.9316 -0.209656
3.31251 16.7984 -5.33471e-15
0.534892 14.6291 -0.973284
3.19628 14.1941 -1.12057
1.19257 15.2914 -2.10041
4.8279 15.5762 -0.18645
4.8279 15.1127 -0.630556
4.74755 15.1985 -0.90629
3.01433 15.0198 -1.9197
3.30524 14.4548 -1.9272
2.94388 15.6194 -0.973026
0.607488 14.6028 -1.08701
1.84003 12.7058 -1.54972
1.29198 15.343 -1.68192
3.64199 17.2386 -3.13251e-14
1.47379 13.5946 -2.39709
1.78349 13.5292 -2.38557
2.85909 17.2407 -0.311804
4.15463 15.2851 -0.644827
1.32007 13.7466 -1.2931
4.81797 15.5529 -0.498291
2.71433 14.4538 -3.36945e-14
2.78015 16.4526 -0.724497
-4.36436e-15 15.0697 -0.241941
2.60956 15.0436 -5.16204e-15
3.85862 13.8321 -0.519231
3.79677 15.1674 -1.08268
1.39716 12.7763 -1.66012
4.30349 17.8036 -0.435523
0.943231 14.5396 -3.3934e-14
2.13612 12.8537 -2.26646
2.8703 15.4903 0
4.09584 15.2296 -0.729914
4.79658 15.3122 -0.00570187
2.35162 14.0711 -3.36738e-14
2.42788 13.0877 -0.202668
3.81898 16.5025 -3.3934e-14
0.792514 14.4357 -1.96858
1.90864 16.1552 2.03607e-15
3.42572 14.4452 -1.68107
3.48864 16.3925 -0.680011
4.65137 17.8452 -0.0585297
4.8279 14.8967 -0.0351534
3.42585 14.3479 -1.66363
4.77218 17.8435 -0.432216
4.04765 16.9982 -3.3934e-14
3.90501 16.8182 -3.3934e-14
1.27745 13.9749 -0.795086
2.37787 13.4174 -2.36586
2.64835 15.6065 0
1.27299 14.2785 -2.5177
1.92892 15.6932 -0.925534
4.20089 17.2668 -0.528311
1.88097 12.674 -1.79106
2.4279 13.248 -0.282554
0.401445 14.6453 -1.01841
3.62235 13.5458 -0.583319
4.06034 15.2304 -3.3934e-14
1.17577 15.715 -0.672088
2.99519 17.2927 -0.573509
4.55147 14.4115 -3.3934e-14
2.06152 12.6706 -1.81525
2.90086 14.3931 -3.36738e-14
7.78e-18 14.7103 -2.25043
1.81653 15.8486 -0.84484
3.4282 15.4053 -1.08807
3.44491 14.6258 -1.68193
3.10782 13.4951 -0.452179
1.05206 15.3308 -1.79002
2.4279 13.1362 -1.77946
0.758657 15.2761 -2.2092
0.454647 15.4547 -0.827845
1.26502 13.9611 -1.40927
1.46278 13.2192 -3.3934e-14
2.1416 16.0189 -0.800977
3.97572 14.2377 -0.534255
4.8279 14.6599 -0.197374
4.61721 14.3743 -0.388038
1.65575 12.7637 -0.96282
3.67978 17.6461 -0.0310249
1.64745 13.2413 -3.3934e-14
4.8279 14.5871 -0.548328
2.99141 15.0767 -1.62522
4.22986 15.2839 -0.622217
3.35642 15.3442 -1.14403
1.82026 15.2864 -2.13633
2.01652 15.2764 -2.20641
-4.59968e-15 14.8168 -0.348935
1.44412 15.8946 -0.0815083
4.18608 16.5498 -3.3934e-14
1.50233 13.2506 -2.33644
3 13.7216 -3.36738e-14
2.03416 15.0007 -2.64502
3.66092 17.0586 -3.3934e-14
2.78095 13.8008 -3.36738e-14
4.03941 16.9379 -0.517287
4.30433 17.5431 -3.3934e-14
4.8279 17.7622 -0.0923675
0.97418 14.4329 -0.626602
4.45658 15.2429 -0.65447
2.10365 15.3765 -1.40397
1.58924 14.3067 -2.52266
3.71627 15.5985 -0.453599
1.82665 16.1559 -0.776816
4.56888 15.0068 -3.3934e-14
2.44102 13.4103 -2.3646
4.71602 15.2091 -3.19119e-14
4.63595 15.6345 -0.218701
1.56082 12.7825 -0.759168
3.74659 15.0621 -1.40211
4.39841 14.5615 -3.3934e-14
3.3292 14.7945 -3.3934e-14
2.14579 12.7485 -1.14685
1.02324 14.3385 -1.35922
0.0575679 15.2176 -2.58105
2.06987 15.4431 -1.20999
3.35077 15.0969 -1.48278
3.01869 13.649 -1.27551
2.3911 16.3007 -2.64114e-15
3.21038 16.5171 -1.4122e-14
3.89521 15.0017 -3.3934e-14
3.73526 13.7331 -3.37832e-14
1.3285 13.4033 -0.424801
2.02308 14.6969 -2.59147
4.43028 15.3734 -0.587503
1.00143 15.3724 -1.42554
4.74818 13.6105 -0.163117
0.281336 15.45 -0.16917
3.30686 16.3915 -0.73528
4.49926 17.2272 -0.463905
1.48897 12.8172 -0.401447
1.36139 14.2427 -3.38995e-14
2.73198 13.9215 -2.10324
1.50554 14.8878 -3.3934e-14
3.405 14.6308 -1.74955
1.30356 13.8387 -1.33373
2.02453 12.688 -1.68849
0.0358089 14.5472 -2.00658
4.44135 15.4227 -3.3934e-14
1.86427 12.7306 -1.33052
0.936924 14.9733 -3.3934e-14
0.22089 14.6847 -0.064418
1.32846 13.5359 -1.92816
4.05 15.7908 -0.31181
1.3285 13.1701 -1.60051
1.7593 14.6331 -3.3934e-14
4.1649 17.6251 -3.3934e-14
3.78742 17.6896 -0.252558
2.4279 13.0402 -2.10832
-4.54027e-15 14.8887 -0.53629
0.679049 15.5014 -0.932689
4.00431 14.412 -0.615734
4.8279 14.2749 -0.0823362
3.26503 15.2309 -1.2189
4.61957 15.9182 -0.219707
0.794171 15.0977 -2.66214
4.11777 14.0679 -0.447417
0.428301 14.6773 -0.247782
1.19808 14.1749 -0.111557
2.35281 13.9351 -3.36738e-14
4.18937 16.5499 -0.404995
4.4944 15.9472 -3.3934e-14
2.92096 13.4648 -0.58483
4.08255 14.1884 -3.3934e-14
3.91751 14.1218 -3.3934e-14
3.1921 14.2038 -3.36738e-14
4.38529 16.7435 -3.3934e-14
1.96257 14.5062 -2.55784
1.3285 13.494 -0.214077
1.3285 13.2833 -0.899109
1.85108 15.5987 -3.3934e-14
4.35267 17.815 -0.0189474
3.26654 13.8576 -3.36738e-14
2.53655 14.2961 -3.38645e-14
2.06284 13.8287 -2.43838
3.93216 15.7388 -2.89058e-14
2.73941 15.3101 -1.50212e-14
1.43204 14.1634 -2.49738
4.21027 16.7557 -3.3934e-14
1.04947 15.5157 -3.3934e-14
1.86591 14.561 -2.5675
2.04275 12.6922 -2.23798
4.75583 17.4758 -0.487247
2.70655 15.0638 -2.48029
0.494137 14.9909 -5.31053e-14
1.92394 14.9294 -2.63246
4.47658 13.9173 -0.326463
4.58525 17.0796 -3.3934e-14
3.46058 16.7597 -0.67036
0.912451 15.3253 -1.83646
1.25614 14.0819 -0.0470757
2.04794 14.7387 -3.3934e-14
3.30514 16.4942 -0.717173
3.4441e-07 15.3344 -1.12613
3.49459 17.4983 0
3.00573 13.4609 -1.23843
1.03551 14.1834 -2.4299
2.48691 13.4049 -0.331519
4.75289 16.6292 -0.337962
3.31644 14.2678 -1.86666
1.76122 12.7855 -0.606091
3.37892 14.291 -1.73787
3.29234 17.4941 -0.136167
1.10455 15.1836 -2.66917
0.104877 14.7359 -5.08841e-14
1.70738 15.2393 -2.45004
2.51848 13.3841 -0.901061
2.56295 13.2278 -2.27524
2.81733 14.9181 -2.49665
2.45739 15.9475 -2.00438e-14
0.276996 14.6351 -1.20867
4.4561 14.3739 -0.904526
1.8737 16.0242 -0.800077
2.90125 15.226 -1.76616
-4.61267e-15 14.7902 -0.310018
2.71076 17.1321 -0.390339
4.43732 16.9953 -0.431793
3.62583 15.8638 -0.506507
1.0322 15.446 -1.20229
3.97178 13.8401 -3.39328e-14
1.58948 15.3549 -1.56987
3.7547 15.6057 -1.39016e-14
1.48859 14.8681 -3.3934e-14
1.57261 15.9894 -0.283067
2.56152 15.579 0
1.32978 12.8992 -1.99565
3.51104 13.5354 -0.58547
0.965374 15.3648 -1.47841
0.471399 15.4185 -6.48997e-13
4.27282 16.0428 -0.29512
1.3285 13.2123 -1.98322
1.1186 14.2878 -0.469309
1.27231 15.2597 -2.31926
1.34789 13.4977 -2.37012
4.38394 14.22 -0.397789
2.39922 16.8639 -0.44244
2.78254 13.5918 -1.81513
2.60117 13.7591 -3.36738e-14
1.97733 15.6215 -0.982286
0.729987 15.289 -2.11715
0.564383 15.284 -2.15342
3.15879 14.8927 -3.3934e-14
3.49859 16.0836 -0.618974
3.83707 15.6485 -1.46556e-14
0.0366726 14.4814 -2.5518
1.67903 13.3998 -2.36275
2.56161 17.0108 -0.453897
1.28077 13.8362 -2.02502
1.3285 13.188 -1.89306
4.8279 17.8001 -0.181042
4.8279 17.4109 -0.148947
3.3542 13.5316 -0.0768106
0.750407 14.4467 -2.04113
0.810657 14.9348 -2.63341
2.35038 14.4804 -3.39113e-14
2.14797 14.3145 -3.37238e-14
1.51007 14.8371 -3.3934e-14
0.289911 14.5808 -1.74409
0.72969 14.4916 -1.77335
2.29253 16.1786 -1.7193e-14
2.82592 16.5203 0
1.43453 13.2344 -2.33357
1.70444 15.8694 -0.837887
2.149 15.4622 -1.17161
2.78664 15.6467 -0.958591
0.633267 15.3955 -1.3231
4.7233 16.0534 -3.29575e-14
-4.36436e-15 15.194 -0.463566
4.05448 17.7443 -0.465723
4.21078 17.7924 -0.291925
2.76035 15.3131 -1.93593
2.23468 13.806 -2.43437
4.76005 16.5277 -2.20184e-14
3.03437 16.1644 0
2.38721 13.8193 -2.43672
1.14235 15.6187 -0.983068
3.44336 17.4624 0
3.56147 14.276 -1.38728
0.497007 15.476 -0.536196
3.33725 16.4173 -0.730728
1.15384 15.288 -2.12478
4.4864 15.1869 -0.972132
1.55028 15.387 -1.3567
3.24583 14.1734 -2.01802
3.7431 14.2825 -0.663595
2.4279 12.9952 -1.91991
3.36329 13.5232 -0.508526
4.53852 14.4096 -0.629354
4.48943 15.4399 -0.588726
4.1499 15.2125 -0.826864
3.95255 14.7999 -3.3934e-14
2.09895 15.2535 -2.35917
1.33467 13.0214 -0.0716538
1.08104 14.4866 -3.3934e-14
1.33046 12.9956 -1.38801
4.6285 13.6802 -0.264411
2.76875 13.4187 -0.989498
4.5998 17.8392 -0.328468
1.15191 14.2452 -0.394805
3.87005 16.9252 -3.3934e-14
3.99178 14.8942 -1.19243
3.9498 13.8237 -3.3934e-14
2.37413 14.3026 -2.52194
2.4194 13.0283 -2.28364
4.8279 17.7216 -0.391108
4.8279 14.2128 -0.200799
3.29621 14.2898 -1.02485
1.51239 12.8051 -2.25788
2.62352 15.1448 -2.67027
3.54543 17.6054 -0.174026
2.7549 15.7349 -0.898558
3.7881 14.207 -3.3934e-14
0.254255 14.6792 -0.410868
4.66691 15.0953 -3.3934e-14
4.8279 14.5026 -0.631687
3.641 16.7287 -0.651271
4.59647 16.717 -0.3629
2.4279 13.0858 -1.07862
4.5652 14.4107 -0.893174
2.09013 12.6144 -2.17122
3.46185 16.5629 -3.3934e-14
4.13053 17.687 -0.506844
2.36479 15.2524 -2.36692
1.32846 13.5412 -1.79243
2.65234 13.4008 -0.983359
0.609885 14.6324 -0.579681
3.40417 13.5527 -0.020543
4.14226 17.1439 -0.522298
2.68548 17.109 -0.526965
2.82365 14.0943 -2.41808
4.36601 17.5092 -0.53373
2.74883 14.4607 -3.36837e-14
0.84243 14.4322 -1.77847
1.32821 13.6026 -1.23921
1.26357 14.0216 -0.643328
0.550295 15.0352 -3.84458e-14
1.33917 13.4021 -0.0127597
1.44363 14.793 -3.3934e-14
2.56705 13.3109 -1.72938
1.3285 13.2391 -2.22792
3.79177 14.229 -3.3934e-14
1.32247 13.7781 -0.416983
4.60407 13.6099 -0.0349661
4.14489 16.2992 -3.3934e-14
1.49868 12.692 -1.78796
0.675327 15.2733 -2.22787
3.17708e-08 15.3413 -0.175015
2.42628 12.8703 -2.22192
3.36154 14.3262 -1.10237
2.32713 15.3364 -3.3934e-14
4.39059 15.2842 -3.3934e-14
2.82266 17.0329 0
1.96281 12.7482 -1.14985
1.96223 16.3732 -0.570842
0.483264 14.6512 -0.774916
1.3285 13.5534 -0.779425
1.95245 14.5319 -3.3934e-14
3.3272 14.0601 -3.36738e-14
4.0231 16.235 -0.399472
1.3285 13.2139 -0.8877
3.81234 17.648 -0.513713
4.77464 15.2602 -1.83386e-14
2.10283 12.6465 -1.97601
2.21721 16.3166 0
0.126595 15.4321 -0.445836
0.785511 14.5919 -0.0249846
1.22829 14.1184 -0.0699753
1.62785 12.7706 -0.867018
0.877526 15.2818 -2.16847
2.63425 13.7614 -2.42641
2.7896 13.4457 -0.579829
2.6463 15.3448 -1.66595
3.38291 15.9682 0
1.84751 13.1628 -2.32097
0.0113085 14.6856 -0.0942645
1.39747 15.008 -3.3934e-14
1.3285 13.4954 -1.67452
4.8279 14.1489 -0.101358
1.95607 15.2177 -3.3934e-14
0.44494 14.4921 -2.32515
2.61172 14.9215 -2.35078e-14
3.64792 15.2626 -3.23082e-14
2.96522 13.527 -1.34765
3.65722 14.4623 -3.38448e-14
0.345286 14.982 -8.17662e-14
0.912155 14.447 -1.18469
2.61064 14.9649 -1.3703e-14
4.05082 15.6189 -0.314447
2.69426 15.7348 -0.897994
3.82081 13.5707 -0.318417
3.42761 17.3543 -0.565499
1.94648 16.3261 -0.0179243
0.540611 15.4111 -1.27898
3.49522 13.8348 -0.759395
1.26878 13.9131 -1.73481
2.16341 16.6175 -0.224108
2.8927 14.1703 -1.98638
1.80393 14.1731 -3.36738e-14
4.36341 15.3752 -0.60188
0.759457 14.4806 -1.74923
0.35851 14.6541 -0.925932
2.77343 14.1165 -1.94245
2.47234 16.3126 -0.749185
0.0537565 14.5368 -2.56323
1.40963 15.8694 -0.205457
3.71652 14.3704 -0.851958
0.395938 14.6072 -1.47311
3.08357 15.863 0
2.34918 14.4219 -3.3866e-14
0.619972 15.0494 -2.65362
2.86301 15.0072 -1.99121
7.78e-18 14.9378 -1.16954
4.13293 13.7023 -0.377371
2.23777 12.7916 -0.717481
2.79987 15.5271 0
2.60962 14.8926 -2.94502e-14
7.78e-18 14.7179 -0.938449
1.28361 14.3943 -3.3934e-14
3.13489 15.119 -1.4155
1.60082 14.7713 -2.60459
1.06964 15.6722 -0.325975
2.74165 14.4629 -2.5502
3.85257 15.2247 -0.817062
1.93343 16.3393 -0.573333
3.86709 16.1979 -3.3934e-14
2.99968 15.5059 -0.965938
2.17157 14.1699 -2.49854
0.0146484 15.2088 -2.48658
2.51051 13.3458 -1.34182
3.88491 14.3425 -1.00998
2.74391 16.6144 -0.695977
2.09957 12.6352 -2.04662
0.202424 15.2519 -2.37009
1.67824 12.6291 -2.22686
1.49978 14.5666 -2.56849
0.398454 14.6167 -1.3761
2.75902 15.5508 -1.04869
1.34309 13.3364 -2.34282
2.36522 16.5922 -0.699879
1.7071 15.8146 -0.859647
2.60143e-07 15.2951 -1.36594
0.73267 15.5394 -0.432248
0.125797 14.6791 -0.414644
1.99617 15.3599 -1.51986
0.489257 15.4587 -0.880641
4.04907 15.0504 -1.18704
4.82384 17.3892 -0.455676
4.00085 14.1006 -0.499413
3.44203 15.7853 0
0.551168 14.5931 -1.38649
5.24097e-18 15.1455 -0.861367
3.22255 16.3857 -0.736298
4.8279 14.5136 -0.72992
7.78e-18 14.7101 -2.46224
1.65963 15.2224 -2.55284
3.84782 16.1582 -3.3934e-14
2.0304 14.0335 -2.47448
0.763434 15.3607 -1.5121
4.55919 14.4417 -0.420726
4.8279 14.9758 -0.823989
3.13872 16.9761 -0.632188
1.52358 12.7924 -0.688839
1.2441 14.0639 -0.768757
1.46068 15.8628 -0.00428613
1.5168 15.3341 -1.76181
4.78056 13.6298 -0.000782525
1.08661 14.2002 -1.96314
3.36755 16.5296 -0.710916
3.21446 16.2154 -0.766337
3.85602 17.2775 -0.579059
3.86792 17.0911 -3.3934e-14
2.04191 13.125 -3.3934e-14
3.39771 16.5936 -0.699637
3.26318 14.5506 -2.06428
1.52485 13.6537 -2.40751
2.00926 12.6148 -2.18067
2.84177 14.3639 -2.53274
0.429477 14.5908 -1.61087
3.21126 14.4966 -2.26845
2.1264 12.7112 -1.50437
1.26856 14.6397 -3.3934e-14
1.06273 14.3049 -1.28025
4.30081 16.541 -3.3934e-14
1.03248 14.3295 -1.36441
1.15727 14.7721 -3.3934e-14
1.94959 16.2133 -2.33774e-15
1.3285 13.4638 -1.34606
2.59045 13.2772 -1.99716
0.00994332 14.6219 -1.56498
3.97221 15.8265 -3.3934e-14
3.44714 14.8329 -1.71473
4.23173 16.7408 -3.3934e-14
3.31316 14.1014 -0.973856
3.25798 14.2531 -1.51716
4.4098 15.6143 -3.3934e-14
1.26123 15.1962 -2.67057
3.62842 16.3261 -0.586549
2.30676 15.7471 -0.892586
2.7419 13.4609 -1.96498
1.09728 14.2287 -1.63696
2.04996 12.7911 -0.472841
3.94659 15.5649 -3.3934e-14
4.04014 14.1222 -3.3934e-14
3.76952 16.9861 -3.3934e-14
4.37551 17.8194 -0.178648
4.76171 16.7712 -0.362616
2.2699 15.4656 -1.16806
0.707684 14.5017 -1.7733
2.62667 15.2161 -2.59023
4.52172 14.3725 -0.839628
2.73148 16.7465 0
2.21337 16.6725 -0.370026
3.81261 16.7118 -0.564703
1.1095 15.3369 -1.73593
3.18881 14.339 -2.45155
3.76992 17.0263 -0.623348
3.71732 16.1597 -0.5114
4.28868 17.8067 -0.210244
2.4279 13.1647 -1.67471
3.08879 13.4755 -0.817741
1.61849 15.3374 -1.73296
1.29597 15.0759 -2.65828
2.06624 12.7966 -0.289469
2.6301 13.424 -2.36701
1.69547 14.3897 -2.53729
2.33276 16.7926 -0.616573
2.23816 16.6943 -0.566853
4.82753 15.2714 -0.0189995
2.00821 15.2482 -2.39378
3.03672 13.4868 -0.42662
3.67259 15.8832 -0.485431
3.74435 15.5159 -0.860482
4.7666 14.7595 -0.93743
3.52893 16.5887 -3.3934e-14
4.13972 17.4498 -0.548671
0.815089 14.7799 -3.3934e-14
0.451933 14.6135 -1.35362
4.73185 15.9053 -0.210558
4.30865 16.2967 -3.3934e-14
0.447583 14.5859 -1.63144
2.03984 13.9953 -3.36738e-14
1.26284 14.989 -2.64298
0.267353 14.8261 -2.61425
4.12399 13.7782 -3.37042e-14
3.41891 14.1922 -3.36738e-14
4.15524 13.6576 -0.362217
3.00281 15.3843 0
1.07352 15.2695 -2.25383
2.50188 15.3366 -1.73971
3.32213 15.9766 0
1.3007 13.9139 -0.0821379
3.98953 17.1606 -3.3934e-14
4.8279 14.1345 -0.0716106
0.444546 14.6619 -0.662276
3.92639 14.0318 -3.3934e-14
2.30982 14.8694 -2.62187
2.65074 15.0011 -7.28549e-15
0.503133 15.4556 -0.97798
1.43882 14.8965 -3.3934e-14
2.44236 13.416 -2.36561
4.48779 17.4061 -0.496528
3.14095 15.9203 -0.822196
2.4279 13.3189 -1.16921
2.11937 14.8863 -2.62487
1.76175 13.3416 -3.3934e-14
0.643195 14.5337 -1.70243
3.47396 14.282 -3.36894e-14
1.21346 15.2849 -2.14718
3.00097 14.4767 -3.36738e-14
3.93228 15.7142 -0.339883
0.776281 15.2805 -3.3934e-14
3.68618 15.1489 -1.18738
3.97481 14.9099 -3.3934e-14
1.6207 14.4337 -3.37612e-14
1.79607 12.7698 -0.878165
3.24503 16.5492 -0.70748
1.62311 12.6237 -2.22422
0.153827 15.3835 -1.32207
0.344019 15.3758 -1.41083
4.8279 17.1801 -0.0589924
3.07085 14.8262 -2.61427
1.50859 15.8755 -0.00127456
1.1863 14.1714 -0.845271
1.93989 13.5709 -3.37323e-14
1.3285 13.243 -2.28813
0.260322 14.5589 -1.91952
3.66631 14.3712 -1.35635
1.50956 12.6925 -1.75924
2.11804 12.6882 -1.68721
3.58389 16.1036 -0.571904
2.2783 13.767 -3.36738e-14
1.97659 15.4658 -3.3934e-14
1.32744 13.638 -1.36956
2.55361 15.5009 -1.1116
2.17036 12.769 -0.888797
3.19323 14.2913 -2.37708
0.00919345 14.5345 -2.19591
0.10585 15.2609 -2.31157
3.07309 16.2947 0
1.3285 13.5339 -0.761317
2.16037 12.7583 -1.03154
1.64295 13.1018 -2.3102
4.57989 17.8409 -0.081751
3.48729 15.7725 -0.571003
1.35783 12.7724 -2.10019
1.94483 12.6193 -2.14265
1.59395 12.7334 -1.31146
0.426634 14.6247 -1.26586
3.05342 13.4509 -1.18458
3.73167 17.1642 -3.3934e-14
2.01367 12.7551 -1.07014
2.21373 14.3389 -3.38269e-14
1.8535 15.4278 -1.2412
3.14281 14.2747 -3.36738e-14
0.636514 14.9125 -3.3934e-14
1.3285 13.0437 -1.80748
3.1567 15.1195 -1.36751
2.28746 12.8256 -0.261162
2.7611 15.2025 -2.16472
2.4979 15.5864 -1.01182
4.39992 13.6052 -0.0252758
2.178 13.235 -2.33369
3.5031 14.3098 -1.19562
1.3285 13.1056 -1.82435
4.16951 14.9176 -3.3934e-14
3.4699 13.54 -0.323737
3.61253 15.6943 -3.49188e-16
3.64279 15.1966 -3.3934e-14
3.37721 16.5194 -3.3514e-14
1.3285 12.9868 -1.7055
3.34478 14.9583 -1.92416
2.53328 13.415 -0.230245
2.57235 13.3989 -0.813955
1.64247 16.0029 1.47927e-14
2.51727 16.542 -0.708729
1.30057 13.9094 -0.389384
1.93075 16.3394 -0.47241
1.3235 13.5716 -2.33035
4.26745 15.9495 -0.279754
4.11818 14.0453 -3.3934e-14
4.39565 15.2989 -0.582434
2.60228 13.9807 -3.36738e-14
1.3285 13.0099 -1.81563
2.20691 16.6619 -0.489185
1.60224 15.5669 -1.0327
4.11602 16.9432 -0.494724
2.17247 15.6788 -3.3934e-14
3.10386 17.3954 -0.03562
0.679639 15.514 -0.00877475
2.96097 15.1713 -1.63714
1.51591 12.8107 -0.213099
2.24157 15.3356 -1.74849
2.89606 14.8811 -2.59763
3.78013 16.6267 -0.564319
0.133034 15.3058 -1.99214
0.802826 14.583 -0.0247804
2.71339 17.1354 -0.331336
4.82032 14.4051 -0.805145
4.20164 13.9706 -0.402041
2.64285 15.2963 -3.32181e-14
2.4279 13.1282 -0.166835
2.04798 13.2357 -2.33381
0.574245 14.6066 -1.16394
1.42421 12.8442 -0.678728
4.40948 15.6209 -0.296027
2.03956 12.6144 -2.21664
3.49738 14.8148 -1.63676
4.66139 13.6375 -0.246461
3.22751 14.2653 -3.36738e-14
2.74491 15.9353 0
1.78457 15.0393 -2.65183
0.20524 14.682 -0.294313
3.63362 17.4013 -2.55102e-14
3.11648 15.0663 -1.65622
4.14564 16.4894 -3.3934e-14
4.8279 14.4374 -0.0841927
1.99873 15.6519 -3.3934e-14
1.71027 15.8816 -0.833678
2.4785 14.1265 -3.36822e-14
0.764588 14.5496 -0.994588
2.80184 15.0658 -1.99441
1.18305 15.3604 -1.51437
-4.59209e-15 14.822 -0.372406
2.22839 13.4532 -2.37216
1.54579 12.8029 -0.310563
2.37721 16.8481 -0.0776876
2.62828 14.402 -2.53946
3.9018 15.3418 -3.3934e-14
0.697898 15.4326 -1.22926
1.9466 16.0392 -0.797394
2.42936 13.3886 -0.0363331
1.22596 14.1095 -0.618979
4.65744 15.6107 -3.3934e-14
0.0223158 14.6064 -1.51717
4.33021 14.3897 -0.742485
4.8279 14.5581 -0.543699
