0.2756626704108991 14.700607670410898 -0.38946032958910093
4.667929694910533 15.096319694910534 1.0196949104991128e-3
4.8035571824728525 14.478257182472852 -0.6560298175271472
3.677602325530889 16.76530232553089 -0.6146686744691107
4.620961359371218 16.741491359371217 -0.33840864062878184
2.4285652802968283 13.08646528029683 -1.0779547197031718
4.539977144435806 14.385477144435807 -0.918396855564194
2.0721151536054463 12.596385153605446 -2.1892348463945535
3.4835915389397645 16.584641538939763 2.1741538939730534e-2
4.114725623409158 17.671195623409158 -0.5226483765908423
2.3504463691410864 15.238056369141086 -2.3812636308589137
1.2994108956718604 13.51215089567186 -1.8214791043281395
2.6702156228858103 13.41867562288581 -0.96548337711419
0.6001486168257609 14.622663616825761 -0.5894173831742391
3.4119069138504554 13.560436913850454 -1.2806086149544938e-2
4.145260686335469 17.146900686335467 -0.5192973136645317
2.6868734482259176 17.11039344822592 -0.5255715517740827
2.788378009007453 14.059028009007452 -2.453351990992547
4.363514983163088 17.50670498316309 -0.536225016836912
2.733668780036764 14.445538780036763 -1.5161219963269535e-2
0.8260458281429413 14.415815828142941 -1.7948541718570588
1.321646122440634 13.596036122440635 -1.2457738775593659
1.2679907304532212 14.02602073045322 -0.6389072695467789
0.5569999795543062 15.041904979554307 6.704979554267801e-3
1.3163302988426366 13.379260298842638 -3.559940115736323e-2
1.4703761686673267 14.819746168667326 2.6746168667292767e-2
2.5715976645285106 13.315447664528511 -1.7248323354714894
1.339143425040169 13.249743425040169 -2.2172765749598313
3.8405324735328965 14.277762473532896 4.876247353286254e-2
1.3332956233978717 13.788925623397873 -0.40615737660212836
4.614852684590814 13.620682684590815 -2.418341540918554e-2
4.1088844218317195 16.26319442183172 -3.600557816831417e-2
1.4664279904949804 12.65974799049498 -1.8202120095050196
0.6772268658240286 15.27519986582403 -2.225970134175971
-2.6150266682133445e-2 15.315149701547067 -0.20116529845293346
2.4021310025341687 12.84615100253417 -2.2460689974658314
3.4034496485173924 14.368109648517391 -1.060460351482608
2.335710489524807 15.344980489524806 8.580489524773253e-3
4.366884793925121 15.26049479392512 -2.370520607491308e-2
2.8104340212323398 17.02067402123234 -1.2225978767659974e-2
1.970293232224183 12.755683232224184 -1.142366767775817
1.9520320122063255 16.363002012206326 -0.5810399877936744
0.5107053451235778 14.678641345123577 -0.7474746548764223
1.3250991686776514 13.549999168677651 -0.7828258313223486
1.972167827455541 14.55161782745554 1.9717827455507122e-2
3.333085824688426 14.065985824688426 5.885824688392342e-3
4.024174561174821 16.23607456117482 -0.39839743882518
1.3345442848135163 13.219944284813517 -0.8816557151864837
3.8110066420724413 17.646666642072443 -0.5150463579275584
4.776228842928833 15.261788842928832 1.588842928814781e-3
2.118483972200661 12.662153972200661 -1.9603560277993388
2.2461141209753324 16.345504120975335 2.890412097533232e-2
0.126343996945906 15.431848996945906 -0.44608700305409404
0.8133445552136237 14.619733555213624 2.8489552136237266e-3
1.218773430174471 14.10888343017447 -7.949186982552897e-2
1.5895100655771874 12.732260065577188 -0.9053579344228124
0.8807994118821545 15.285073411882156 -2.165196588117846
2.6118478394937195 13.73899783949372 -2.448812160506281
2.7716864240495607 13.427786424049561 -0.5977425759504396
2.6530071517329925 15.351507151732992 -1.6592428482670079
3.4237250951927827 16.009015095192783 4.081509519278283e-2
1.8504565242118975 13.165746524211897 -2.3180234757881024
2.195254680498945e-2 14.69624404680499 -8.362045319501055e-2
1.3875637491070028 14.998093749107001 -9.906250893031158e-3
1.3655806612363026 13.532480661236303 -1.6374393387636974
4.8391426888415285 14.160142688841528 -9.011531115847086e-2
1.9205207584743216 15.182150758474322 -3.5549241525712344e-2
0.43735451810158477 14.484514518101586 -2.332735481898415
2.636171933461656 14.945951933461656 2.4451933461632377e-2
3.6279786213677268 15.242658621367728 -1.9941378632305454e-2
2.943352082329079 13.505132082329078 -1.369517917670921
3.6599938783881076 14.46507387838811 2.773878388073839e-3
0.356884705995788 14.993598705995787 1.159870599570625e-2
0.9196430911984582 14.454488091198458 -1.177201908801542
2.614194207160321 14.96845420716032 3.55420716030701e-3
4.038158267710881 15.606238267710882 -0.32710873228911863
2.658365777524832 15.698905777524832 -0.9338882224751678
3.8238554540282097 13.573745454028211 -0.31537154597179
3.4634014624866034 17.390091462486602 -0.5297075375133967
1.9481543548976799 16.32777435489768 -1.6249945102320213e-2
0.5088718110055064 15.379360811005506 -1.3107191889944936
3.5127585469094855 13.852338546909484 -0.7418564530905148
1.2664765193404206 13.91079651934042 -1.7371134806595794
2.11675869485053 16.57084869485053 -0.2707593051494698
2.8990697951433297 14.17666979514333 -1.9800102048566706
1.7921704595408186 14.161340459540819 -1.1759540459215187e-2
4.365782242715573 15.377572242715573 -0.5995077572844267
0.7896002735741754 14.510743273574176 -1.7190867264258247
0.35809561579716387 14.653685615797164 -0.9263463842028361
2.7581412316722322 14.101211231672233 -1.9577387683277676
2.472886069094325 16.313146069094326 -0.748638930905675
8.557840011401335e-2 14.568621900114012 -2.5314080998859865
1.4116865267756606 15.871456526775662 -0.2034004732243393
3.751282578305666 14.405162578305665 -0.8171954216943342
0.40641520740072873 14.61767720740073 -1.4626327925992713
3.0574948265249877 15.836924826524987 -2.6075173475012103e-2
2.3693582823986485 14.442078282398649 2.0178282398614848e-2
0.6231894057333422 15.052617405733344 -2.650402594266658
2.837939668280307 14.982129668280306 -2.016280331719693
-4.516025829075645e-3 14.933283974170923 -1.1740560258290758
4.130393888146495 13.699763888146494 -0.3799071118535057
2.2492309682403957 12.803060968240397 -0.7060200317596043
2.8191174060573023 15.546347406057304 1.9247406057302626e-2
2.6040428295905182 14.887022829590519 -5.577170409511248e-3
3.1706591584186136e-2 14.749606591584186 -0.9067424084158139
1.334914763148093 14.445604763148092 5.130476314805917e-2
3.1339429228312112 15.118052922831211 -1.4164470771687885
1.6350137676465109 14.80549376764651 -2.570396232353489
1.099705585523946 15.702265585523946 -0.29590941447605396
2.749883480955831 14.47113348095583 -2.541966519044169
3.880648664664845 15.252778664664845 -0.7889833353351551
1.943368562839854 16.349238562839854 -0.5633944371601459
3.8576969288203338 16.188506928820335 -9.393071179700375e-3
3.0046663909454274 15.510886390945428 -0.9609516090545726
2.2049298845476746 14.203259884547675 -2.4651801154523256
-7.540301291276601e-3 15.186611298708723 -2.5087687012912765
2.498360132526669 13.33365013252667 -1.353969867473331
3.8887918342658843 14.346381834265884 -1.0060981657341161
2.7451635328026787 16.61565353280268 -0.6947234671973211
2.0590369166433877 12.594666916643387 -2.087153083356612
0.15761112924156628 15.207087129241565 -2.4149028707584335
1.6784784828084833 12.629338482808482 -2.2266215171915165
1.4908638466762345 14.557683846676234 -2.5774061533237655
0.39981913620147175 14.618065136201471 -1.3747348637985284
2.7825841040807755 15.574364104080775 -1.0251258959192247
1.3160090051202686 13.309319005120267 -2.3699009948797314
2.3805393013189367 16.607519301318934 -0.6845596986810633
1.6994848440014532 15.806984844001454 -0.8672621559985468
-3.202377228923061e-3 15.291897362628077 -1.369142637371923
0.7249416692380111 15.531671669238012 -0.439976330761989
0.1183453678444347 14.671648367844435 -0.42209563215556534
1.9795125316458075 15.343242531645807 -1.5365174683541925
0.5022248167572358 15.471667816757236 -0.8676731832427641
4.056867517265279 15.05819751726528 -1.1792424827347212
4.849029760935494 17.414389760935492 -0.43048623906450606
4.0271992918543855 14.126949291854386 -0.4730637081456146
3.4508811524147425 15.794151152414742 8.851152414742458e-3
0.5680338526985839 14.609965852698584 -1.3696241473014161
1.6486722593282845e-2 15.161986722593284 -0.8448802774067171
3.26052176106693 16.42367176106693 -0.69832623893307
4.855188693499745 14.540888693499745 -0.702631306500255
-7.18162953792688e-3 14.702918370462074 -2.4694216295379268
1.6432847671224509 15.20605476712245 -2.5691852328775493
3.867599088485022 16.177979088485024 1.977908848498824e-2
2.0241202344082474 14.027220234408247 -2.4807597655917526
0.7598868742764394 15.357152874276439 -1.5156471257235604
4.5622691602149 14.4447791602149 -0.41764683978510037
4.833968514932121 14.981868514932122 -0.8179204850678782
3.1356416109262217 16.97302161092622 -0.6352663890737783
1.533305978552591 12.802125978552592 -0.6791130214474088
1.2146103219504913 14.034410321950492 -0.7982466780495087
1.4681327797893766 15.870252779789377 3.166649789376667e-3
1.501211817330798 15.318511817330798 -1.777398182669202
4.766422029450213 13.615662029450212 -1.49204955497872e-2
1.1322610802091875 14.245851080209189 -1.9174889197908127
3.3866229696965435 16.548672969696543 -0.6918430303034566
3.174404026423248 16.175344026423247 -0.8063929735767519
3.848510503281979 17.269990503281978 -0.5865684967180211
3.8736449876071006 17.096824987607103 5.724987607066902e-3
2.0502203712617475 13.133310371261748 8.310371261713582e-3
3.3853238989010053 16.581213898901005 -0.7120231010989948
3.2341208139249584 14.521540813924958 -2.093339186075042
1.5389440490134012 13.667794049013402 -2.393415950986599
2.010928177438956 12.616468177438957 -2.179001822561044
2.835981779516568 14.358111779516568 -2.538528220483432
0.45855020735922714 14.619873207359227 -1.5817967926407728
3.2069367839515808 14.492276783951581 -2.272773216048419
2.0992770543593 12.6840770543593 -1.5314929456406996
1.2718045578249446 14.642944557824944 3.2445578249107715e-3
1.0441159461387903 14.28628594613879 -1.2988640538612097
4.2809228476014685 16.52111284760147 -1.9887152398565845e-2
1.0201102699362947 14.317130269936294 -1.3767797300637052
1.1569456500682542 14.771775650068253 -3.24349931779831e-4
1.9380587591072418 16.201768759107242 -1.153124089276051e-2
1.3334985998010023 13.468798599801003 -1.3410614001989978
2.6165739017176817 13.303323901717683 -1.9710360982823183
1.3779136046653873e-2 14.625735816046655 -1.5611441839533462
3.9582296966436292 15.812519696643628 -1.3980303356404891e-2
3.454184557386394 14.839944557386394 -1.7076854426136063
4.223370066348001 16.732440066348 -8.359933652032579e-3
3.317750912742582 14.105990912742582 -0.9692650872574178
3.255844735627252 14.250964735627251 -1.5192952643727478
4.390089089078981 15.594589089078982 -1.9710910921052795e-2
1.2563096213550653 15.191279621355065 -2.675490378644935
3.6315641118063224 16.32924411180632 -0.5834048881936775
2.3211705749129794 15.761510574912979 -0.8781754250870207
2.7330992562723595 13.45209925627236 -1.9737807437276405
1.0961160878461371 14.227536087846136 -1.6381239121538629
2.0305824357656626 12.771722435765662 -0.4922185642343374
3.9696532402539133 15.587963240253913 2.3063240253879496e-2
4.078482729685003 14.160542729685002 3.834272968496892e-2
3.7428260191052956 16.959406019105295 -2.6693980894738203e-2
4.373970042542644 17.817860042542645 -0.18018795745735616
4.7682732749555825 16.777763274955582 -0.356052725044417
2.278487257388539 15.47418725738854 -1.1594727426114606
0.6470416693591554 14.441057669359155 -1.8339423306408447
2.6070581373036195 15.19648813730362 -2.6098418626963804
4.516408709705743 14.367188709705744 -0.8449392902942567
2.7523723166659204 16.767392316665923 2.089231666592037e-2
2.2022457510795355 16.661375751079536 -0.3811502489204644
3.847132250886362 16.74632225088636 -0.5301807491136378
1.0531151819087707 15.28051518190877 -1.7923148180912292
3.1757647981130686 14.325954798113068 -2.4645952018869317
3.7623251387847447 17.018705138784743 -0.6309428612152551
3.714750194602455 16.157130194602455 -0.513969805397545
4.29235508043009 17.810375080430088 -0.20656891956991016
2.44040341477125 13.17720341477125 -1.66220658522875
3.0930897532732833 13.479799753273284 -0.8134412467267168
1.624287512030052 15.343197512030052 -1.727162487969948
1.2959397900864063 15.075869790086406 -2.658310209913594
2.068327486420987 12.798687486420986 -0.2873815135790129
2.6548592169059986 13.448759216905998 -2.3422507830940016
1.6848583799784391 14.37908837997844 -2.5479016200215607
2.354396432591216 16.814236432591215 -0.5949365674087838
2.2355683072267074 16.691708307226705 -0.5694446927732929
4.825368310122768 15.269238310122766 -2.116118987723303e-2
2.0094776885849397 15.24946768858494 -2.3925123114150604
2.9963528190869466 13.446432819086947 -0.46698718091305325
3.66963220697831 15.880242206978311 -0.4883887930216899
3.7391169949300656 15.510666994930066 -0.865715005069934
4.7483061975611545 14.741206197561153 -0.9557238024388462
3.497599709855563 16.55736970985556 -3.133029014447113e-2
4.15680199728409 17.46688199728409 -0.5315890027159103
0.8455980927350722 14.810409092735071 3.0509092735038386e-2
0.45590980750632426 14.617476807506325 -1.3496431924936758
4.768034803392832 15.941484803392834 -0.17437319660716688
4.2894459340097235 16.277495934009725 -1.9204065990310836e-2
0.43813409825702027 14.57645109825702 -1.6408889017429797
2.0517872896917937 14.007247289691794 1.194728969176003e-2
1.2703358003814773 14.996495800381478 -2.6354841996185225
0.2634878947979333 14.822234894797933 -2.618115105202067
4.117259725467738 13.771469725467739 -6.730274532295513e-3
3.4240423677598804 14.19733236775988 5.132367759846799e-3
4.167181252230132 13.669541252230132 -0.35027574776986775
2.9825266994693345 15.364016699469333 -2.0283300530665738e-2
1.095705799526443 15.291685799526444 -2.2316442004735566
2.5337108922459843 15.368430892245986 -1.7078791077540154
3.3277539484546947 15.982223948454694 5.623948454694757e-3
1.30351070919462 13.91671070919462 -7.932719080537999e-2
3.9661057938851747 17.137175793885174 -2.342420611485891e-2
4.816703267309204 14.123303267309202 -8.280733269079608e-2
0.49033613314077296 14.707690133140773 -0.616485866859227
3.9465477497849615 14.051957749784961 2.0157749784927445e-2
2.316584266797411 14.876164266797412 -2.615105733202589
2.59305998053485 14.943419980534848 -5.768001946515723e-2
0.5019476056411161 15.454414605641116 -0.979165394358884
1.4503446509798845 14.908024650979884 1.152465097985049e-2
2.464624667020156 13.438264667020157 -2.343345332979844
4.4882347816350485 17.40654478163505 -0.49608321836495145
3.1143932183422542 15.893743218342253 -0.8487527816577459
2.386429214415734 13.277429214415733 -1.2106807855842663
2.1205749116237933 14.887504911623793 -2.6236650883762067
1.7534171035380954 13.333267103538095 -8.332896461938443e-3
0.6805841020787443 14.571089102078744 -1.6650408979212559
3.4596439102802257 14.267683910280226 -1.4316089719808066e-2
1.22027262940885 15.29171262940885 -2.14036737059115
3.0101776915975322 14.48590769159753 9.207691597498216e-3
3.9358752999689273 15.717795299968927 -0.33628770003107283
0.7538710122145797 15.25809001221458 -2.240998778545417e-2
3.684550026864544 15.147270026864543 -1.1890099731354558
3.9523779223950157 14.887467922395016 -2.2432077605018388e-2
1.619956782130222 14.432956782130223 -7.432178698117514e-4
1.7993343865511684 12.773064386551168 -0.8749006134488317
3.2576513950710733 16.56182139507107 -0.6948586049289267
1.579223504184036 12.579813504184035 -2.268106495815964
0.1489752583918532 15.378648258391854 -1.326921741608147
0.3449054474732562 15.376686447473256 -1.4099435525267439
4.798772408906615 17.150972408906615 -8.811999109338445e-2
3.056324395090063 14.811674395090064 -2.628795604909937
1.4970903037863683 15.86400030378637 -1.2774256213631673e-2
1.1941095288001116 14.179209528800111 -0.8374614711998883
1.9160531616370382 13.547063161637038 -2.3836838362995362e-2
1.32260684467185 13.23710684467185 -2.2940231553281505
0.2328758458188117 14.531453845818811 -1.9469661541811882
3.66501959476422 14.36990959476422 -1.35764040523578
1.495254890483699 12.6781948904837 -1.7735451095163008
2.116998678018397 12.687158678018397 -1.688251321981603
3.577278802554739 16.09698880255474 -0.5785151974452607
2.262268125925851 13.75096812592585 -1.603187407418327e-2
2.0055165307782543 15.494726530778253 2.892653077822019e-2
1.3199356791781853 13.630495679178185 -1.3770643208218147
2.549671124466995 15.496961124466996 -1.1155388755330047
2.1513062997765746 12.749946299776575 -0.9078507002234252
3.2420549213383696 14.340124921338369 -2.3282550786616305
6.611477819245735e-3 14.531918027819245 -2.1984919721807543
6.619236864073452e-2 15.221242368640734 -2.3512276313592655
3.064030468856136 16.285640468856133 -9.059531143864059e-3
1.3255406991909011 13.5309406991909 -0.7642763008090989
2.163705256368684 12.761635256368685 -1.028204743631316
1.6332950579440728 13.092145057944073 -2.319854942055927
4.604553511046955 17.865563511046958 -5.708748895304462e-2
3.480822502488729 15.76603250248873 -0.5774704975112709
1.3599882002930193 12.774558200293018 -2.098031799706981
1.9544850327650214 12.628955032765022 -2.132994967234979
1.630224260055615 12.769674260055615 -1.275185739944385
0.4698366693952715 14.667902669395271 -1.2226573306047284
3.0623787250108974 13.459858725010898 -1.1756212749891026
3.696459849843417 17.128989849843418 -3.521015015661674e-2
1.9897389948894566 12.731168994889458 -1.0940710051105433
2.219092585859829 14.344262585859829 5.362585859795021e-3
1.8848973929171664 15.459197392917167 -1.2098026070828336
3.17609101925089 14.307981019250889 3.328101925085652e-2
0.654252622787616 14.930238622787616 1.7738622787582075e-2
1.3265793684952725 13.041779368495272 -1.8094006315047275
3.1734057206180037 15.136205720618005 -1.3508042793819963
2.3052028518127674 12.843342851812768 -0.24341914818723237
2.7721006095566785 15.213500609556679 -2.1537193904433214
2.4939460190371583 15.582446019037157 -1.0157739809628419
4.4076724621467545 13.612952462146755 -1.75233378532451e-2
2.1989635817609217 13.255963581760922 -2.312726418239078
3.509531975133095 14.316231975133094 -1.189188024866905
1.3420016588661012 13.119101658866102 -1.8108483411338987
4.182806146556532 14.930896146556531 1.3296146556497693e-2
3.448181204897487 13.518281204897486 -0.34545579510251323
3.596024633613799 15.6777946336138 -1.6505366386201176e-2
3.6685628625961653 15.222372862596165 2.577286259613113e-2
3.348493377169857 16.49068337716986 -2.871662283017643e-2
1.3078243233561273 12.966124323356128 -1.7261756766438727
3.318918198583028 14.932438198583027 -1.9500218014169721
2.4955874966186165 13.377307496618615 -0.26793750338138356
2.560828451682618 13.387378451682617 -0.8254765483173822
1.644842816450388 16.00527281645039 2.372816450402852e-3
2.5201365076926114 16.544866507692614 -0.7058624923073887
1.306535175437645 13.915365175437644 -0.38341882456235493
1.9194146605886235 16.328064660588623 -0.4837453394113763
1.3175613211518145 13.565661321151815 -2.336288678848186
4.269749167274164 15.951799167274165 -0.27745483272583554
4.10934454206347 14.036464542063468 -8.835457936564314e-3
4.386883994343079 15.29013399434308 -0.5912000056569207
2.6210796497465734 13.999499649746575 1.879964974653977e-2
1.313655874560228 12.995055874560228 -1.830474125439772
2.2251861812552636 16.680176181255263 -0.47090881874473656
1.6308879330047117 15.595547933004712 -1.0040520669952884
4.1057217709953155 16.932901770995315 -0.5050222290046846
2.188398136246363 15.694728136246363 1.5928136246329046e-2
3.096374120496151 17.38791412049615 -4.310587950384926e-2
0.6956883813676494 15.530049381367649 7.2746313676494475e-3
2.9686767408202956 15.179006740820297 -1.6294332591797043
1.5292781710192649 12.824068171019265 -0.19973082898073513
2.23701440021681 15.33104440021681 -1.7530455997831897
2.9169861471463836 14.902026147146383 -2.5767038528536164
3.756352368520144 16.602922368520144 -0.5880966314798562
0.11255862429532204 15.285324624295322 -2.012615375704678
0.8289724391807692 14.609146439180769 1.3660391807691769e-3
2.731167058414171 17.153177058414173 -0.3135589415858291
4.8467089114955835 14.431488911495583 -0.7787560885044166
4.199754128757277 13.968714128757275 -0.40392687124272336
2.639644991915677 15.293094991915677 -3.2050080843564355e-3
2.435802243767559 13.136102243767558 -0.15893275623244144
2.074052235938337 13.261772235938336 -2.307737764061663
0.5857726512279882 14.618127651227988 -1.1524123487720117
1.4134656252920768 12.833455625292077 -0.6894723747079232
4.425293772407941 15.636713772407942 -0.2802132275920589
2.0363103326767584 12.61115033267676 -2.2198896673232413
3.5106604095330622 14.828080409533062 -1.6234795904669381
4.616366148589463 13.592476148589462 -0.29148485141053754
3.2129975907824817 14.250787590782481 -1.451240921755189e-2
2.752816299418849 15.943206299418849 7.906299418848989e-3
1.750020682173956 15.004750682173956 -2.686379317826044
0.18969303258353137 14.666453032583531 -0.30985996741646865
3.6417740338645763 17.409454033864577 8.154033864550771e-3
3.110094482803228 15.059914482803228 -1.6626055171967722
4.136423715849849 16.48018371584985 -9.216284150184663e-3
4.834365217054723 14.443865217054723 -7.772748294527689e-2
2.011796320105646 15.664966320105645 1.3066320105612084e-2
1.7011482252015466 15.872478225201547 -0.8427997747984534
2.4766792669147533 14.124679266914754 -1.8207330852805439e-3
0.7598004723500957 14.544812472350095 -0.9993755276499043
2.7986449766018673 15.062604976601866 -1.9976050233981328
1.1823439698826668 15.359693969882667 -1.5150760301173332
2.089121586603412e-2 14.842891215866038 -0.3515147841339613
2.227214077788566 13.452024077788566 -2.3733359222114343
1.5381114581364939 12.795221458136494 -0.31824154186350617
2.389530200648952 16.86042020064895 -6.536739935104788e-2
2.604262628972108 14.377982628972108 -2.563477371027892
3.8679187482971162 15.307918748297116 -3.388125170291786e-2
0.7044560785142802 15.43915807851428 -1.22270192148572
1.9353251573768058 16.027925157376806 -0.8086688426231944
2.4418973082584468 13.401137308258447 -2.3795791741553045e-2
1.2527353776768146 14.136275377676816 -0.5922036223231852
4.622697377712079 15.57595737771208 -3.474262228795504e-2
-3.669000650085706e-3 14.580415199349915 -1.5431548006500857
4.342671218408027 14.402161218408025 -0.7300237815919733
4.8035419844939735 14.533741984493973 -0.5680570155060263
1.9160371574638857 15.066107157463886 -2.666782842536114
4.5040580281070275 17.835738028107027 -8.829107189297244e-2
2.550326129765035 13.254776129765034 -2.028853870234965
3.1180626780279974 15.313912678027997 -1.4090373219720025
2.1459827457968554 13.600522745796855 -2.391407254203145
2.5080422266198017 13.402412226619802 -0.2213977733801981
0.23534268565970473 15.216973685659704 -2.6016263143402956
2.400174049578985 14.712374049578985 -3.125950421048926e-3
1.3347661842134901 13.00546618421349 -1.7877138157865098
1.3062194214696736 15.810309421469674 -0.5310265785303262
0.9247181929433981 15.587681192943398 -0.6440078070566019
0.4071974452323658 15.098103445232367 -8.59655476767156e-3
3.1433959850894846 14.209255985089484 -2.4895040149105157
1.8132099444862346 13.937389944486235 -2.4306100555137653
2.511350016380394 13.389570016380393 -0.905616983619606
2.4117862406790374 12.823636240679038 -1.9708037593209629
4.133091111649946 14.373861111649946 -0.8452498883500541
2.7361602806875887 16.253630280687588 -2.596971931241114e-2
0.6986232094713156 15.418124209471316 -1.2819657905286843
2.0470295247136336 13.065709524713634 -2.3145304752863662
2.187301661872837 12.759751661872837 -1.0654383381271628
1.426100304130818 13.880910304130818 -6.689695869215752e-3
3.0068272298431946 14.271477229843194 -1.5304127701568055
1.2132243220987597 15.36992432209876 -1.3518356779012404
2.995130244126123 15.383940244126123 -1.3581697558738768
1.608391071090409 14.666571071090408 -2.5984989289095908
1.946938555377925 12.839198555377925 -2.221191444622075
1.7151226968891147 14.741022696889114 -8.277303110919327e-3
3.288393920618465 13.515803920618465 -0.2529960793815348
2.825827000607622 17.104787000607622 -0.6137989993923777
3.3053325360678083 14.958902536067809 3.902536067774625e-3
2.4410636931652046 13.219833693165205 -1.9880163068347956
3.465139907917758 16.29889990791776 -0.6719210920822418
2.3045000706082073 14.301900070608207 -5.999929391826946e-3
1.370887189279335 15.753397189279335 -0.884887810720665
3.396561010135993 13.505951010135993 -0.5234579898640073
1.3106767356819498 13.014166735681949 -0.7414052643180503
1.3419759281921047 13.442375928192105 -1.8665040718078953
2.8753689417039636 14.870948941703965 1.0048941703929642e-2
3.405183605873005 16.068623605873007 -2.717639412700628e-2
4.184997779301918 14.436197779301917 -1.0203722206980828
2.7421569163553258e-3 14.724342156916356 -1.4813378430836448
2.8539207238017075 16.194480723801707 -0.7752162761982926
5.841417247594044e-3 14.674441417247595 -2.100818582752406
2.0472091866094737 16.479769186609474 -0.2543708133905265
2.7777159636536783 15.23372596365368 -2.0674540363463216
2.661375423350581 14.300625423350581 -5.617457664945283e-2
4.803524167238836 15.236624167238835 -0.7148598327611645
2.3647769740357556 12.791786974035755 -1.6527230259642447
4.3709333289204135 14.423193328920414 -0.3981946710795864
4.849518827285068 15.176218827285068 -8.596617271493215e-2
-3.312943651390819e-3 14.946487056348609 -0.7590739436513908
1.2455191252788222 13.996149125278821 -1.1478608747211778
0.4455838131787699 15.26440281317877 -2.1710271868212305
2.0886619673443656 15.159821967344365 -2.6670480326556345
4.84737238961763 14.66467238961763 -0.71259261038237
3.5224951894256904 17.54584518942569 3.0045189425690698e-2
2.0315339151857077 13.014423915185708 -1.5760848143264738e-3
4.211247513315536 16.290037513315536 9.63751331550216e-3
1.370638652761801 13.428438652761802 -6.40683472381989e-2
1.264551947316449 15.697941947316448 -2.858052683574867e-3
-2.430587506242972e-2 14.871694124937571 -1.6867658750624297
4.02912241072576 16.52911241072576 6.31241072572629e-3
4.2946786541820945 17.022708654182097 -1.9791345817939242e-2
0.25205214531367226 14.527098145313673 -2.1973218546863276
0.5678324749370877 14.702756474937088 -2.637473525062912
4.513989565899971 17.086169565899972 -0.4119474341000294
2.314713990618652 12.851593990618651 -0.2465030093813484
4.688291920139653 16.185171920139652 -2.572807986037962e-2
2.8138539198454526 14.161863919845453 -1.827136080154547
4.0098588039940575 16.79922880399406 1.0928803994023439e-2
3.188340522759623 17.42133052275962 -2.011232724037744e-2
1.3388541079141825 13.325454107914181 -0.6824278920858176
1.9362374101433613 15.209397410143362 -2.4243525898566385
0.9805698934379217 15.195587893437922 -2.6352921065620785
3.701381294210285 17.186831294210283 -0.6036627057897151
4.509500404932056 17.800940404932057 -0.4724675950679444
2.406420606691674 13.032390606691674 -0.7184433933083261
3.4134235594648024 15.548513559464801 -0.6506104405351976
2.261588471461299 13.0219084714613 -2.2771715285387013
4.778746519417003 17.722216519417003 -3.984069058299695e-2
2.171157504229612 14.617797504229612 -1.3802495770421933e-2
2.00043831773164 12.65094831773164 -2.00759168226836
4.605518726369701 16.7818787263697 7.978726369667085e-3
4.528623160054486 16.400723160054486 -4.37683994554853e-3
3.6688339758571105 17.30993397585711 -0.5853200241428893
2.952664328317662 15.378774328317661 -1.3842956716823382
3.132734373114366 15.458454373114368 -1.2011856268856334
4.784662968489318 15.331272968489317 -0.5506160315106821
-1.8117662234621107e-2 15.221382337765382 -0.2632006622346167
3.7851718026945034 17.668881802694504 -0.476963197305497
2.1855626065877716 15.278822606587772 -2.0457273934122284
3.392453280373247 15.076163280373247 -1.6976867196267529
2.4151424276522255 13.037442427652225 -1.5852675723477747
1.977105286023376 16.109755286023375 5.855286023372912e-3
0.6085291318074704 15.50833813180747 -0.2524198681925296
3.239986183345056 13.529066183345057 -0.952285816654944
0.7934373111747975 14.628900311174798 -0.45537768882520246
1.7720918319048495 13.43619183190485 -2.353638168095151
4.172558631954563 16.531098631954563 2.3398631954528643e-2
4.687658171091641 15.091798171091641 -1.3401828908391452e-2
2.390481621368251 16.85645162136825 -0.40410437863174914
3.681595927476906 14.186675927476907 -0.682024072523094
1.2436339239650098 14.60920392396501 -2.57657607603499
3.5635290555446537 16.799459055544652 -0.6718549444553463
2.880482120839827 13.643912120839826 -1.5384278791601735
3.113103966683115 14.763413966683116 -1.6386033316918815e-2
2.154787521625842 15.737597521625842 -0.8897514783741581
2.4852420939805624 16.951652093980563 -2.919250601943765e-2
1.2913240374309527 13.996814037430951 -1.1605459625690473
1.5832500188653913 15.985350018865391 2.195118865391338e-3
2.91167506938613 14.74888506938613 -2.57641493061387
4.523107109584179 14.031847109584179 -0.3317078904158209
1.7507308097027046 15.411860809702706 -1.2446691902972953
3.029252463370981 15.98280246337098 -0.817534536629019
1.249869498186541 13.91865949818654 -1.8842705018134591
-1.6130693291972698e-2 15.285569162968027 -1.1962208370319727
1.771547984644936 14.249927984644938 1.027984644902249e-3
3.342755375611317 15.927335375611317 -3.2646243886829437e-3
0.1444327648576098 14.62791976485761 -1.21028023514239
2.3078361913517007 12.8396461913517 -0.1891958086482995
2.551179806806134 13.500319806806134 -2.4383101931938658
2.634563230089128 17.076483230089128 -0.19623076991087163
2.141377662238033 13.435847662238032 -2.371162337761967
2.6017263429931052 13.232276342993105 -2.2682236570068945
4.311806065811977 17.119356065811974 1.95560658119429e-2
1.2488389230747359 13.938838923074735 -1.4743110769252643
4.7161949095673075 15.175944909567308 2.0444909567273878e-2
1.4988110374514114 13.75853103745141 -2.4240789625485886
0.5836838108562773 14.569947810856277 -0.6988271891437228
0.8854662682577267 14.341899268257727 -1.7721807317422735
0.5460471135523292 14.58326011355233 -1.6012698864476709
1.2795526638386185 13.856302663838619 -2.0869773361613815
1.459186939914651 13.539156939914651 -2.367143060085349
0.1996678142868808 15.41107081428688 -0.7792481857131193
3.7766804963623626 13.567830496362362 -0.49087350363763754
3.164903954878413 17.425843954878413 -0.23675304512158712
0.5958763595060623 14.648559359506061 -0.4700486404939377
2.9135932332323966 15.715963233232397 -0.8987567667676033
2.4518368880281494 13.05723688802815 -2.0955631119718507
1.572516804875196 15.533946804875196 -5.053195124837727e-3
3.8138029200609362 15.798152920060938 -7.247079939089002e-3
1.2694368955813107 13.79788689558131 -1.4499731044186894
2.523680517300532 14.103610517300531 1.1310517300497902e-2
4.523045833288668 15.582375833288669 -0.452428166711332
2.3784706665623796 14.510050666562378 -1.6149333437654633e-2
1.9302048581221016 12.791964858122101 -2.2397251418778983
2.0174449582977223 14.97096495829772 -2.6250150417022775
4.469333699341552 14.362003699341551 -0.8813563006584483
2.730389879799026 16.890589879799027 -1.0110120200973967e-2
4.535986687906305 13.975156687906304 -6.433120937290828e-4
4.496955029032774 13.939555029032775 -0.3223199709672257
0.5890587318279354 15.504959731827935 -0.1638012681720646
4.206022930832282 14.397812930832282 -0.6116010691677174
2.768002800318398 13.915492800318397 -1.9031071996816025
4.049827490600665 14.714817490600664 7.5174906006307924e-3
0.9311504222067681 14.676974422206769 -2.614675577793232
2.0005310659401068 15.020241065940105 -2.6778189340598932
2.850795752400516 15.141465752400515 1.6657524005155137e-3
3.490200643815016 14.355910643815017 -1.561799356184984
3.524891206642945 14.182431206642946 -0.7985447933570547
2.5013796566358466 13.431109656635847 -0.3486883433641536
0.9975021948530872 14.620513194853087 5.211319485305327e-2
1.4035366953641368 12.837096695364137 -0.14188430463586316
3.0735023615405455 14.164182361540545 -2.0479976384594547
0.38456051045668604 15.323293510456686 -1.716436489543314
2.720953510352524 13.509663510352524 -2.181786489647476
2.4860043676218235 13.429594367621823 -5.7116323781764705e-3
3.272326196899381 15.824336196899381 -0.7402888031006193
3.842297461714765 16.562427461714766 3.26274617147309e-2
1.386829775964878 15.345809775964877 -1.615320224035122
0.19967519101874792 14.493604191018747 -2.262725808981252
3.1805491635427217 13.487199163542723 -0.9766638364572784
2.072213718938053 12.802883718938054 -8.316158106194671e-2
3.6259938104632696 15.16159381046327 -1.1279561895367303
1.1561923695994023 14.254342369599403 -0.7681806304005978
2.529165466317326 13.317205466317327 -1.6681445336826743
1.7783703367785468 13.007660336778546 -2.2948196632214533
2.5292713480324065 13.438811348032406 -2.750865196759384e-2
1.2958382602647454 13.269538260264744 -0.19507973973525458
4.244802681255359 13.651792681255358 1.2842181255358145e-2
2.7999839720834423 13.974623972083442 -1.7656260279165574
3.263479641101171e-4 15.21592634796411 -1.6868536520358899
3.043021968549802 15.133841968549802 -1.4997480314501979
7.728828156199055e-2 15.439247881561991 -0.47084411843800944
2.7004040923867536 15.355594092386754 -1.4891959076132464
2.418342604671274 13.231442604671274 -1.235207395328726
3.3214476900401118 14.285507690040113 -1.3367723099598885
0.9189026975758466 14.523933697575846 -0.2970823024241533
3.911241754331893 14.301491754331892 -0.569281245668107
1.349319837187219 14.610619837187219 6.419837187185156e-3
2.775191478088125 14.723791478088126 -2.592808521911875
4.001534939443562 17.07372493944356 4.012493944352898e-2
4.3848812040750245 17.782341204075024 1.5241204074990333e-2
4.47072233286128 14.686782332861279 -7.717667138753869e-3
0.9504219147304445 15.044952914730445 -1.29470852695895e-2
3.0163017021238705 16.55989170212387 -0.7056642978761296
2.991046893035133 15.406616893035132 -1.303343106964867
1.325229301965363 14.355609301965362 -2.498810698034637
2.376750930313891 14.12537093031389 1.6870930313857623e-2
1.2974767062498667 13.327676706249868 -0.3966672937501333
1.6941647577309256 15.434414757730925 -1.748524226910834e-2
2.2271046304520525 15.388854630452052 -1.4534153695479475
4.390759597813045 13.945059597813046 -0.35366440218695433
3.4619752987963803 14.298445298796379 -1.2892947012036198
3.270236543719636 16.786796543719635 -0.6840254562803638
3.3056863429485874 15.563956342948588 -8.436570514126867e-4
0.6751595640082464 15.505090564008245 -0.5508474359917537
4.060305394109392 14.68071539410939 -2.846058906427064e-4
3.4608230569038203 14.28654305690382 -1.2406569430961798
2.1285305756715616 14.58121057567156 -2.5804594243284384
4.004680121336849 16.76616012133685 -0.4727978786631516
1.760289519508983 13.738579519508983 -5.99204804910509e-2
1.745918202784457 12.824548202784456 -2.2313717972155427
3.1348610831508035 15.525931083150804 -0.9350969168491965
0.16675725698900262 15.384791256989002 -1.0083707430109974
-4.610351560233697e-3 14.882689648439765 -2.601600351560235
1.3166232930910506 13.45732329309105 -0.6609807069089495
2.9639632307252675 16.17926323072527 -0.7630257692747323
1.3393792405388234 13.143079240538823 -8.089255946117672e-2
4.742908202853414 16.917688202853412 -1.6911797146608672e-2
1.4240096220379346 15.756109622037934 -0.8802833779620655
4.293187281374156 14.293487281374157 7.187281374122162e-3
2.261602655215873 16.037832655215873 -0.7756743447841271
1.8189373601968146 14.239997360196815 -2.360263980321907e-2
2.9289824195019016 13.645572419501901 -1.0627580498132002e-2
0.3252016766919581 15.278434676691958 -2.235495323308042
9.157771133890512e-3 14.58335777113389 -2.1206122288661096
4.840299889671412 17.534099889671413 -0.21219111032858753
1.1311773096088684 15.310247309608869 -2.062132690391132
2.560415467922025 13.718065467922026 1.1654679219912888e-3
0.4162345655682797 14.74588756556828 -2.59882243443172
1.4721671292345218 12.77072712923452 -0.7339998707654783
2.551192605899648 13.386492605899647 -0.9543963941003523
0.12530140017469177 14.558293400174692 -1.9976165998253081
3.6618376877303347 14.870557687730335 -2.154231226969932e-2
2.7640461174488413 15.104386117448842 -2.1549538825511587
1.174612370561598 15.330602370561598 -1.817487629438402
4.830128917112906 17.706928917112904 -0.16063608288709416
4.135301600697853 16.751671600697854 6.77160069782004e-3
2.395519783350312 12.973579783350312 -0.8107392166496877
2.883489514314278 14.052959514314278 -6.840485685755814e-3
3.022941077480914 13.450901077480914 -1.1724689225190859
1.4658918329842214 13.566771832984221 -2.3869281670157783
3.303372330981723 13.901262330981723 -4.0037669018310615e-2
3.789840987657638 13.99488098765764 -1.7190123423959642e-3
4.297425159346212 15.84525515934621 1.7255159346178058e-2
4.321779324599 13.589519324599 -0.12016667540100023
3.465653799072838 15.529133799072838 -0.7989512009271619
2.7130985753881816 13.920828575388182 -2.3228214246118184
4.829515927056575 15.386515927056575 -0.22362107294342434
1.0563188001511186 14.271668800151119 -1.3227411998488814
1.818507345592879 14.116577345592878 -2.4955126544071207
3.5856404461468685 15.214480446146869 -0.9383115538531315
3.2219699162326108 15.460289916232611 -1.154110083767389
1.8726953581048822 14.010555358104883 -2.4535546418951175
3.8512815461687895 16.42871154616879 -0.5028574538312103
4.355683119175889 17.565873119175887 -0.5558918808241115
2.455848295733242 13.336748295733242 -0.8131897042667582
1.0708139779749881 15.413423977974988 -1.233496022025012
2.7405069016630477 13.433736901663048 -0.6269660983369523
2.9203745522035516 16.114484552203553 5.284552203551196e-3
2.617036093991619 14.26675609399162 2.5456093991585382e-2
8.14023706616859e-2 15.107526070661685 -1.2473929338381463e-2
3.245290227871304 16.344040227871304 1.2540227871304183e-2
1.1608106757447116 14.298490675744711 -0.25443732425528837
0.31398730472515174 15.253468304725152 -2.4521316952748484
2.333635257449295 16.686785257449298 1.0585257449295114e-2
1.841553891400799 14.456623891400799 -2.531666108599201
1.0108009289279718 14.580880928927973 -2.580309071072028
2.4299326227195586 14.630652622719559 -2.5745473772804415
2.4876802208406694 13.39608022084067 -0.48054077915933063
4.840675209922616 14.635975209922618 -0.5179157900773831
2.9982602450232245 14.058820245023224 -1.4019697549767756
2.228274957896907 13.741174957896908 -6.225042103126636e-3
1.993247616135492 13.380887616135492 -2.8512383864541888e-2
4.688653236864501 14.2982432368645 -1.5656763135533363e-2
2.4331570244415732 13.135557024441573 -0.23291297555842672
0.7252953875430787 15.014398387543078 1.3398387543044721e-2
3.2873534369171282 15.01126343691713 -1.8410265630828715
4.350311434518332 16.711221434518333 -0.4089915654816678
2.805257261167658 16.763587261167658 -3.61273883234229e-3
3.287361991117883 14.083821991117881 -1.777800888215086e-2
0.6519797532115447 15.250650753211545 -2.204739246788455
3.2921663074133143 17.356866307413316 -0.5568366925866858
2.4549560840045244 15.084506084004524 1.3406084004491264e-2
4.794394877800292 17.737844877800292 1.8380617800291807e-2
2.7360461784897727 13.975216178489772 -2.0631838215102274
1.190308584524758 15.394948584524757 -1.386111415475242
1.802327487954447 15.670727487954446 -2.5972512045586992e-2
4.373423621167012 14.382963621167011 -0.8891603788329884
-1.770343835901772e-2 14.827896561640982 -1.0490834383590177
2.8199688909274223 16.485878890927424 -0.7189771090725777
3.505155321684133 14.271895321684132 -1.3608346783158674
3.4441944154842896 14.30975441548429 -0.8745815845157101
4.082469066736988 15.983159066736988 2.1159066736954658e-2
3.824878289388584 16.517658289388585 -6.741710611449855e-3
4.393940827189762 17.60315082718976 -0.5473771728102381
4.431775346101111 14.43984534610111 -0.4688266538988887
3.542661773804476 17.615381773804476 -0.18834722619552435
4.095227636228812 17.760687636228813 -0.29603136377118777
2.5970575448627446 13.298087544862746 -1.8357824551372552
3.5875866002066177 16.52098660020662 -0.6629073997933825
2.21063325898792 13.59771325898792 7.113258987886406e-3
2.275913223831709 16.73256322383171 -2.353377616829137e-2
1.7825273559123742 15.186737355912374 2.3537355912340307e-2
1.1366565796202501 14.315836579620251 -0.31131942037974997
2.7739846432745647 15.299344643274564 -1.8095453567254356
4.480406500706662 15.591946500706664 -0.38945849929333753
2.776787524353388 16.87135752435339 -2.9042475646612064e-2
4.284249087917287 17.276939087917285 1.8839087917270417e-2
3.4758443417409084 14.929844341740909 -1.6877356582590914
2.8076789369049417 15.08896893690494 2.2368936904918296e-2
4.470517407714045 15.947297407714045 2.097407714010506e-3
2.209244728484847 16.669164728484844 -4.8975771515153296e-2
3.2867442256051067 17.485024225605105 -0.17146277439489332
1.3267460097940578 15.80998600979406 -0.6384299902059424
4.7635775044536794 14.461537504453679 -0.4334384955463209
1.7398727740691846 15.233742774069185 -2.3707872259308154
1.684963213887018 12.760533213887017 -1.178306786112982
4.743640728458871 16.451440728458874 1.9140728458839944e-2
1.950029690897956 14.026069690897957 -1.9330309102077718e-2
0.23575344169207194 14.662732441692071 -0.7381665583079281
1.985582827040146 16.413022827040148 -0.25753617295985376
1.5637530113925897 15.886093011392589 -0.8528689886074101
1.3407849595786794 12.967984959578681 -1.6252150404213206
0.12271197133364226 15.406294971333644 -1.0395950286663578
4.798162281515441 17.16395228151544 -0.4210737184845596
4.8613418614597705 17.429041861459773 -0.4144271385402295
0.22710700211568502 15.418866002115685 -0.659069997884315
2.834307940376489 13.53973794037649 -1.6846520596235108
-2.8543622776480097e-2 15.111256377223519 -1.5318736227764802
4.327056972714087 15.189066972714087 -0.791882027285913
3.275547618169182 14.305787618169182 -1.936262381830818
2.5892065713035923 13.42364657130359 -0.25280342869640765
0.8548610518170645 14.413818051817064 -1.8500719481829353
1.7942089264692127 16.190448926469212 -0.3309160735307873
4.6446359930640995 16.0395959930641 2.4595993064064806e-2
0.32917686958259035 15.20539586958259 -2.63421413041741
0.1411379765552499 14.59181697655525 -1.41444302344475
2.456273316922088 13.21370331692209 -2.134036683077912
3.1705034147379183 14.861923414737918 -2.403196585262082
1.3502058279962557 14.396695827996256 -1.2004172003778226e-2
3.193609052787588 13.502679052787588 -6.974574721241178e-2
2.2651307736677397 13.898150773667739 -2.41645922633226
-1.7661577820020792e-2 15.30620132217998 -1.7265586778200208
1.3214944111564204 13.280794411156421 -1.8666055888435795
3.509783429808249 13.99361342980825 -2.08865701917848e-2
3.577413795014056 15.538203795014056 -0.7488022049859442
0.18093414849152398 15.404332148491525 -1.197067851508476
1.462183237358395 15.357753237358397 -1.464736762641605
4.607593664742981 17.27084366474298 -0.46224433525701936
-3.210129600585716e-3 15.209089870399419 -0.14605912960058132
4.184874654314752 17.67303465431475 -1.796534568528142e-2
4.558968015878062 17.369108015878062 3.7808015878027804e-2
1.259081640592293 15.205231640592293 4.931640592258978e-3
3.2822823326942867 14.970652332694288 -1.989887667305713
1.9062807874951513 13.627900787495152 1.740078749511765e-2
2.423592656149668 13.199192656149668 -1.0636973438503323
1.3545803547084692 13.618680354708468 -0.721639645291531
3.8601827916159097 15.68695279161591 -0.3624072083840899
2.807988275997784 14.142768275997785 -2.076061724002216
0.2736206592710396 15.39446065927104 -1.2445393407289604
4.8202171244139835 17.742517124413983 -0.12778687558601629
2.4932218378491817 13.340801837849181 -1.3786681621508186
4.75211240376621 14.02289240376621 -0.3095285962337903
4.229501768871342 15.884881768871342 4.681768871307065e-3
1.1164841657544435 14.299404165754442 -2.3799034245556645e-2
4.387957560720596 14.999287560720596 -1.0221024392794034
4.19802990561255 15.204429905612551 -0.8102710943874496
2.6495189271878 13.3034589271878 -1.9531410728122003
1.8898261290304836 16.296796129030486 -0.3419898709695164
2.834750284808232 16.190790284808234 -0.800494715191768
4.096356881406175 15.270196881406175 -3.280311859385921e-2
2.416384403002362 16.88325440300236 -0.29043959699763805
2.8863911841054217 14.209571184105421 -1.8995788158945786
3.8879865262783593 16.76096652627836 -0.5405824737216407
3.817104062698799 14.1620240626988 -0.569662937301201
0.1804863298763784 15.440588329876377 -0.2634886701236216
3.0914795141007434 16.640599514100742 -0.6473714858992564
3.018446456331818 16.72258645633182 -0.6872875436681821
3.5233253904838944 17.075675390483894 -0.620176609516106
0.9531339674952107 14.34769796749521 -2.5048320325047895
0.5367283074733664 15.484321307473367 -0.5585446925266335
3.3844955995590222 16.709475599559024 -0.6521244004409779
3.9776125630058408 14.055452563005842 -0.5230814369941591
3.975245451770655 14.055875451770655 -0.49115954822934493
1.4686873446062718 13.570307344606272 -2.381632655393728
3.4215968548812437 16.428956854881246 -0.7339101451187564
1.4047322379474512 15.801212237947452 -3.287762052556791e-3
3.0962612243027845 13.512911224302785 -0.3133977756972153
4.286902766928936 15.361142766928936 -0.6502322330710643
1.9996721976280942 13.551032197628095 -2.356437802371906
3.7814410227599065 14.473831022759905 -1.2645889772400938
2.1689909402249685 14.18789094022497 -2.4957290597750315
3.0894979895932866 16.551137989593286 -0.7127760104067133
0.945914176105779 14.41832217610578 -8.383492389422095e-2
3.4663804682964843 14.314860468296484 2.0604682964506706e-3
1.9034865978400408 15.31630659784004 -1.8761634021599591
3.9893718593100282 13.592761859310029 -0.39059414068997145
3.376330563300553 14.230340563300553 -1.7166394366994469
0.20924563188562476 14.555805631885626 -2.003254368114375
1.8823024928201113 13.482332492820111 -2.391507507179889
0.7337511297789435 15.517399129778944 -5.975041221056422e-3
2.6765922834925133 14.454952283492513 -2.5563877165074866
2.773902541601085 15.844352541601085 2.6525416010845463e-3
4.4643265581633225 14.357626558163322 -0.8946694418366776
2.027787797678765 13.846527797678764 -2.467132202321235
-4.503500310110366e-2 14.680264996898897 -1.4241250031011037
0.2823787133058981 14.701949713305897 -6.076078669410191e-2
2.676639720555763 14.675829720555763 -1.217027944427118e-2
1.22303854006901 14.11387854006901 -1.29162145993099
1.3177087138244787 13.78591871382448 -0.13949128617552134
2.0433303358445953 13.985370335844594 -2.629664155438416e-3
1.4145627668067937 12.831852766806794 -1.5366772331932064
2.9139768776787114 16.712656877678715 -0.6623831223212885
4.000197381500437 14.375377381500437 -1.0272226184995632
6.2116497694779e-3 15.333611649769479 -1.559238350230522
0.9197179615407248 14.459602961540725 -1.3654070384592751
1.4425982918390712 12.855618291839072 -0.6476437081609288
3.898856875595675 16.119996875595675 -3.124404358943661e-6
2.586158459594955 14.219328459594955 -2.5315615404050447
4.437725896489152 15.52516589648915 -0.6488891035108486
1.666938060966923 14.640128060966923 -1.7719390331108087e-3
4.366122234671443 13.647752234671442 -0.28738876532855734
2.9802455617828305 16.837445561782832 -0.6569344382171696
3.7161593495156393 17.468899349515638 5.993495156291702e-4
3.1503282152409735 14.987288215240975 -1.1711784759051323e-2
2.5181611809056585 14.747441180905659 -4.7758819094361485e-2
2.2495504684774246 12.696300468477423 -1.6774395315225756
2.816497366997862 15.088697366997861 -1.9559426330021383
3.0308434717136463 16.57720347171365 1.303471713646371e-3
4.078594079340139 13.593684079340138 -0.3880419206598613
3.998718396092515 15.920648396092515 7.648396092480959e-3
1.8336855250897584 16.234115525089756 -2.409577491024185e-2
4.132642110165014 16.128212110165013 -0.3163918898349865
0.3547841592997204 14.56183115929972 -1.8940988407002797
3.7055199115157382 14.919729911515738 9.129911515704183e-3
1.8953586793746782 16.27153867937468 -7.613206252960525e-4
0.25056774027638673 15.003800740276386 -2.6503992597236135
2.2290306083555826 16.466630608355583 -0.7244693916444178
4.195862318029532 17.19714231802953 -0.5154116819704686
4.353138181244811 13.64253818124481 -0.2520188187551894
1.6880553763255264e-2 14.826880553763257 -1.6694994462367447
0.7189974944382442 15.543526494438243 -0.5420685055617557
